+0.001334547 -0.004890689 +0.000492764
-0.015877059 -0.025532379 -0.020639635
-0.001034710 +0.001561375 -0.000538013
-0.000113089 +0.000777940 -0.000818966
-0.000695499 +0.001784202 +0.000735792
-0.001065918 -0.004598498 -0.006066310
-0.020882349 -0.019498531 -0.021821819
+0.000008710 -0.001386103 -0.000578770
+0.000607837 -0.000597464 -0.002173076
-0.000456239 -0.000476860 -0.001290282
+0.005354913 +0.005305473 +0.005168732
+0.033636928 +0.044058253 +0.048158858
-0.000801473 +0.000795936 -0.001014828
+0.000717875 +0.000179607 +0.000441100
-0.002082764 +0.000703718 -0.001486797
+0.001459061 -0.004800603 +0.000597120
-0.014530237 -0.023976747 -0.019400475
-0.001072644 +0.001581707 -0.000552848
-0.000159381 +0.000807539 -0.000843535
-0.000776332 +0.001811535 +0.000677545
-0.001221945 -0.004805317 -0.006214456
-0.021051408 -0.019732700 -0.022340050
+0.000005334 -0.001423159 -0.000540096
+0.000578759 -0.000614915 -0.002139692
-0.000488339 -0.000466093 -0.001292395
+0.005405794 +0.005200432 +0.005207375
+0.032769786 +0.042884883 +0.047557827
-0.000833701 +0.000814053 -0.001018003
+0.000703840 +0.000220023 +0.000434142
-0.002063494 +0.000774947 -0.001494927
+0.001562942 -0.004718339 +0.000706277
-0.013258704 -0.022500204 -0.018223121
-0.001109294 +0.001601541 -0.000568990
-0.000199330 +0.000840503 -0.000873355
-0.000848936 +0.001832758 +0.000616403
-0.001369637 -0.005002226 -0.006358601
-0.021179123 -0.019923677 -0.022815392
+0.000000979 -0.001459266 -0.000502233
+0.000551021 -0.000632081 -0.002108346
-0.000520022 -0.000456556 -0.001293856
+0.005455318 +0.005097807 +0.005244167
+0.031926456 +0.041744755 +0.046975410
-0.000865169 +0.000831883 -0.001021017
+0.000689332 +0.000259450 +0.000426715
-0.002045097 +0.000843980 -0.001502685
+0.001667753 -0.004636826 +0.000811249
-0.012054210 -0.021101057 -0.017101280
-0.001154788 +0.001615316 -0.000591439
-0.000238119 +0.000872336 -0.000903594
-0.000920911 +0.001854131 +0.000559822
-0.001509039 -0.005189277 -0.006498705
-0.021271036 -0.020075222 -0.023251736
-0.000004389 -0.001494428 -0.000465187
+0.000524362 -0.000649214 -0.002079015
-0.000551242 -0.000448190 -0.001294686
+0.005503504 +0.004997650 +0.005279137
+0.031107197 +0.040637945 +0.046411534
-0.000895889 +0.000849434 -0.001023894
+0.000674364 +0.000297816 +0.000418830
-0.002027556 +0.000910853 -0.001510065
+0.001765350 -0.004557340 +0.000904027
-0.010912993 -0.019776638 -0.016033019
-0.001198267 +0.001629268 -0.000612350
-0.000278417 +0.000900091 -0.000927617
-0.000990239 +0.001874469 +0.000503395
-0.001640706 -0.005367208 -0.006634859
-0.021331093 -0.020192924 -0.023653302
-0.000010734 -0.001528701 -0.000428922
+0.000498787 -0.000666200 -0.002051537
-0.000581959 -0.000440854 -0.001294956
+0.005550239 +0.004899694 +0.005312339
+0.030310584 +0.039563307 +0.045865283
-0.000925889 +0.000866700 -0.001026631
+0.000658926 +0.000335243 +0.000410475
-0.002010790 +0.000975670 -0.001517068
+0.001846250 -0.004491727 +0.000980506
-0.009829045 -0.018517166 -0.015012037
-0.001235283 +0.001648192 -0.000629626
-0.000315249 +0.000927121 -0.000950636
-0.001056457 +0.001894597 +0.000453377
-0.001765169 -0.005536469 -0.006767265
-0.021364138 -0.020280297 -0.024023418
-0.000018000 -0.001562089 -0.000393498
+0.000474137 -0.000683173 -0.002025836
-0.000612114 -0.000434529 -0.001294733
+0.005595613 +0.004804005 +0.005343839
+0.029536610 +0.038520099 +0.045336317
-0.000955157 +0.000883689 -0.001029233
+0.000643106 +0.000371698 +0.000401741
-0.001994772 +0.001038495 -0.001523736
+0.001928685 -0.004425139 +0.001059005
-0.008797253 -0.017320616 -0.014036241
-0.001280679 +0.001661032 -0.000652525
-0.000350385 +0.000953845 -0.000974081
-0.001120706 +0.001912940 +0.000403871
-0.001882765 -0.005697564 -0.006895931
-0.021372423 -0.020340371 -0.024364326
-0.000026118 -0.001594592 -0.000358857
+0.000450434 -0.000700011 -0.002001731
-0.000641632 -0.000429114 -0.001294032
+0.005639592 +0.004710486 +0.005373657
+0.028784944 +0.037507885 +0.044824284
-0.000983715 +0.000900389 -0.001031686
+0.000626935 +0.000407213 +0.000392645
-0.001979460 +0.001099360 -0.001530049
+0.002004722 -0.004365524 +0.001131983
-0.007815105 -0.016183730 -0.013102869
-0.001324415 +0.001674677 -0.000676461
-0.000384451 +0.000979676 -0.000998686
-0.001183864 +0.001931756 +0.000358394
-0.001993783 -0.005850696 -0.007020835
-0.021357980 -0.020375205 -0.024677460
-0.000035030 -0.001626198 -0.000324998
+0.000427602 -0.000716770 -0.001979173
-0.000670436 -0.000424517 -0.001292896
+0.005682186 +0.004619259 +0.005401866
+0.028055482 +0.036526518 +0.044328990
-0.001011532 +0.000916786 -0.001034010
+0.000610465 +0.000441732 +0.000383208
-0.001964830 +0.001158303 -0.001536034
+0.002066317 -0.004305321 +0.001203780
-0.006881622 -0.015103391 -0.012212313
-0.001365976 +0.001686724 -0.000698750
-0.000415179 +0.001005135 -0.001020551
-0.001239453 +0.001944796 +0.000308024
-0.002098607 -0.005996473 -0.007142211
-0.021322236 -0.020387666 -0.024964831
-0.000044629 -0.001656957 -0.000291881
+0.000405470 -0.000733545 -0.001958055
-0.000698495 -0.000420620 -0.001291343
+0.005723392 +0.004530075 +0.005428536
+0.027346640 +0.035574178 +0.043849291
-0.001038677 +0.000932903 -0.001036211
+0.000593687 +0.000475365 +0.000373430
-0.001950822 +0.001215433 -0.001541690
+0.002131163 -0.004259854 +0.001255483
-0.005992921 -0.014073355 -0.011359052
-0.001408514 +0.001700900 -0.000720276
-0.000445938 +0.001028936 -0.001038962
-0.001299332 +0.001964364 +0.000269358
-0.002197568 -0.006135124 -0.007260037
-0.021266738 -0.020378660 -0.025227405
-0.000054756 -0.001686856 -0.000259506
+0.000384034 -0.000750281 -0.001938275
-0.000725774 -0.000417353 -0.001289418
+0.005763314 +0.004442960 +0.005453724
+0.026658474 +0.034650480 +0.043385013
-0.001065137 +0.000948736 -0.001038279
+0.000576655 +0.000508087 +0.000363366
-0.001937431 +0.001270801 -0.001547053
+0.002191787 -0.004210541 +0.001307916
-0.005148429 -0.013094447 -0.010544510
-0.001451155 +0.001713456 -0.000743674
-0.000477050 +0.001049359 -0.001056230
-0.001355678 +0.001979906 +0.000228900
-0.002290855 -0.006266921 -0.007374364
-0.021191893 -0.020349440 -0.025465632
-0.000065286 -0.001715916 -0.000227860
+0.000363245 -0.000766966 -0.001919780
-0.000752232 -0.000414630 -0.001287159
+0.005801855 +0.004357883 +0.005477488
+0.025990632 +0.033755069 +0.042935897
-0.001090897 +0.000964271 -0.001040236
+0.000559373 +0.000539917 +0.000353020
-0.001924606 +0.001324436 -0.001552111
+0.002239364 -0.004166489 +0.001362443
-0.004348203 -0.012162552 -0.009768587
-0.001491881 +0.001725283 -0.000767583
-0.000503638 +0.001071598 -0.001075827
-0.001406105 +0.001992267 +0.000187803
-0.002378890 -0.006392300 -0.007485305
-0.021098505 -0.020299950 -0.025679717
-0.000076096 -0.001744122 -0.000196960
+0.000342986 -0.000783729 -0.001902518
-0.000777790 -0.000412426 -0.001284606
+0.005839094 +0.004274852 +0.005499853
+0.025342847 +0.032887125 +0.042501482
-0.001115987 +0.000979528 -0.001042061
+0.000541923 +0.000570856 +0.000342457
-0.001912328 +0.001376395 -0.001556879
+0.002287550 -0.004121891 +0.001417670
-0.003590158 -0.011279395 -0.009030339
-0.001537157 +0.001734104 -0.000792742
-0.000528579 +0.001094324 -0.001095829
-0.001455806 +0.002002398 +0.000145747
-0.002461962 -0.006511672 -0.007592968
-0.020986120 -0.020230853 -0.025870014
-0.000087015 -0.001771509 -0.000166792
+0.000323253 -0.000800459 -0.001886390
-0.000802500 -0.000410646 -0.001281787
+0.005875254 +0.004193866 +0.005521049
+0.024713913 +0.032045423 +0.042080983
-0.001140500 +0.000994511 -0.001043792
+0.000524151 +0.000600839 +0.000331515
-0.001900574 +0.001426759 -0.001561358
+0.002336207 -0.004089787 +0.001457824
-0.002876119 -0.010439956 -0.008329718
-0.001579077 +0.001744754 -0.000816629
-0.000554596 +0.001114626 -0.001111966
-0.001507314 +0.002018447 +0.000112543
-0.002540253 -0.006625349 -0.007697451
-0.020855111 -0.020141763 -0.026036403
-0.000097961 -0.001798062 -0.000137342
+0.000304025 -0.000817165 -0.001871386
-0.000826315 -0.000409259 -0.001278734
+0.005909932 +0.004114566 +0.005540783
+0.024103618 +0.031229700 +0.041674108
-0.001164301 +0.001009212 -0.001045388
+0.000506356 +0.000630106 +0.000320497
-0.001889282 +0.001475558 -0.001565563
+0.002372012 -0.004058360 +0.001490270
-0.002202882 -0.009646567 -0.007665270
-0.001616066 +0.001757685 -0.000837227
-0.000579005 +0.001132604 -0.001125605
-0.001554063 +0.002030387 +0.000079070
-0.002614162 -0.006733705 -0.007798905
-0.020707111 -0.020033215 -0.026180038
-0.000108793 -0.001823802 -0.000108619
+0.000285156 -0.000833921 -0.001857402
-0.000849238 -0.000408287 -0.001275514
+0.005943396 +0.004037151 +0.005559303
+0.023511472 +0.030438890 +0.041280407
-0.001187468 +0.001023632 -0.001046868
+0.000488440 +0.000658564 +0.000309302
-0.001878450 +0.001522867 -0.001569515
+0.002414069 -0.004022753 +0.001529707
-0.001568808 -0.008897542 -0.007036719
-0.001661989 +0.001763817 -0.000864363
-0.000602966 +0.001149951 -0.001140120
-0.001599185 +0.002040850 +0.000045225
-0.002683719 -0.006836820 -0.007897313
-0.020543670 -0.019906249 -0.026302114
-0.000119369 -0.001848714 -0.000080669
+0.000266617 -0.000850816 -0.001844479
-0.000871306 -0.000407697 -0.001272192
+0.005975588 +0.003961501 +0.005576612
+0.022937333 +0.029672853 +0.040899730
-0.001210023 +0.001037769 -0.001048234
+0.000470420 +0.000686240 +0.000297918
-0.001868048 +0.001568673 -0.001573197
+0.002450881 -0.003995038 +0.001567592
-0.000975238 -0.008190747 -0.006444685
-0.001702344 +0.001773255 -0.000887836
-0.000626007 +0.001167345 -0.001155436
-0.001643017 +0.002049896 +0.000011290
-0.002749581 -0.006935386 -0.007993000
-0.020366733 -0.019761901 -0.026404522
-0.000129669 -0.001872790 -0.000053443
+0.000248587 -0.000867591 -0.001832466
-0.000892474 -0.000407509 -0.001268777
+0.006006724 +0.003887662 +0.005592841
+0.022380390 +0.028930244 +0.040531396
-0.001231963 +0.001051653 -0.001049495
+0.000452351 +0.000713118 +0.000286421
-0.001858057 +0.001613104 -0.001576631
+0.002475909 -0.003966350 +0.001600224
-0.000411176 -0.007528891 -0.005881394
-0.001741824 +0.001781133 -0.000911421
-0.000646712 +0.001185093 -0.001170312
-0.001683285 +0.002058508 -0.000021356
-0.002811785 -0.007029569 -0.008085966
-0.020177973 -0.019602325 -0.026488825
-0.000139589 -0.001896012 -0.000027021
+0.000230857 -0.000884417 -0.001821359
-0.000912797 -0.000407699 -0.001265314
+0.006036712 +0.003815531 +0.005607959
+0.021839982 +0.028210632 +0.040175019
-0.001253321 +0.001065278 -0.001050630
+0.000434201 +0.000739232 +0.000274785
-0.001848456 +0.001656173 -0.001579834
+0.002507787 -0.003949758 +0.001619280
+0.000118901 -0.006902700 -0.005348294
-0.001781462 +0.001791095 -0.000933326
-0.000668610 +0.001200838 -0.001181247
-0.001726850 +0.002072001 -0.000045966
-0.002870537 -0.007119529 -0.008176285
-0.019979415 -0.019428774 -0.026556908
-0.000149116 -0.001918399 -0.000001360
+0.000213516 -0.000901190 -0.001811132
-0.000932299 -0.000408280 -0.001261820
+0.006065652 +0.003745024 +0.005622085
+0.021315894 +0.027513320 +0.039830294
-0.001274122 +0.001078643 -0.001051686
+0.000415993 +0.000764621 +0.000263013
-0.001839230 +0.001697930 -0.001582793
+0.002539232 -0.003929074 +0.001642211
+0.000617674 -0.006313522 -0.004844234
-0.001820607 +0.001799335 -0.000956382
-0.000691584 +0.001213881 -0.001191795
-0.001767453 +0.002082057 -0.000072558
-0.002926061 -0.007205493 -0.008263961
-0.019772682 -0.019243238 -0.026610054
-0.000158249 -0.001939890 +0.000023452
+0.000196377 -0.000918096 -0.001801793
-0.000950918 -0.000409279 -0.001258377
+0.006093519 +0.003676191 +0.005635253
+0.020807654 +0.026837669 +0.039496837
-0.001294337 +0.001091740 -0.001052644
+0.000397755 +0.000789289 +0.000251135
-0.001830353 +0.001738424 -0.001585552
+0.002554666 -0.003909854 +0.001675623
+0.001091804 -0.005759452 -0.004365612
-0.001857809 +0.001807845 -0.000979807
-0.000709149 +0.001230699 -0.001207865
-0.001801641 +0.002086993 -0.000104221
-0.002978643 -0.007287804 -0.008349224
-0.019559361 -0.019047223 -0.026650165
-0.000167024 -0.001960497 +0.000047485
+0.000179653 -0.000934864 -0.001793133
-0.000968741 -0.000410549 -0.001254909
+0.006120396 +0.003609000 +0.005647525
+0.020314828 +0.026182821 +0.039174286
-0.001314000 +0.001104591 -0.001053524
+0.000379541 +0.000813233 +0.000239198
-0.001821816 +0.001777694 -0.001588085
+0.002581414 -0.003886836 +0.001699025
+0.001540824 -0.005238789 -0.003909796
-0.001901516 +0.001810264 -0.001005418
-0.000728946 +0.001244566 -0.001218727
-0.001838161 +0.002095332 -0.000130051
-0.003028156 -0.007366424 -0.008431937
-0.019340031 -0.018842661 -0.026678161
-0.000175466 -0.001980243 +0.000070683
+0.000163145 -0.000951704 -0.001785332
-0.000985752 -0.000412102 -0.001251452
+0.006146283 +0.003543291 +0.005658859
+0.019836705 +0.025548339 +0.038862178
-0.001333149 +0.001117206 -0.001054279
+0.000361298 +0.000836521 +0.000227156
-0.001813590 +0.001815782 -0.001590418
+0.002606565 -0.003881555 +0.001706358
+0.001962280 -0.004744252 -0.003477900
-0.001935594 +0.001821313 -0.001024597
-0.000750262 +0.001256301 -0.001226294
-0.001877247 +0.002108621 -0.000148190
-0.003074959 -0.007441698 -0.008512305
-0.019115698 -0.018630222 -0.026694836
-0.000183659 -0.001999072 +0.000093063
+0.000146882 -0.000968508 -0.001778247
-0.001001948 -0.000413900 -0.001247972
+0.006171261 +0.003479051 +0.005669316
+0.019372872 +0.024933265 +0.038560146
-0.001351803 +0.001129592 -0.001054930
+0.000343058 +0.000859145 +0.000215040
-0.001805670 +0.001852761 -0.001592550
+0.002618046 -0.003869376 +0.001725377
+0.002363903 -0.004279461 -0.003066995
-0.001969814 +0.001830187 -0.001045484
-0.000767281 +0.001269664 -0.001237573
-0.001909162 +0.002114928 -0.000173086
-0.003119148 -0.007513638 -0.008590239
-0.018886976 -0.018410935 -0.026700885
-0.000191569 -0.002016974 +0.000114524
+0.000130813 -0.000985339 -0.001771832
-0.001017255 -0.000415897 -0.001244533
+0.006195249 +0.003416366 +0.005679001
+0.018923183 +0.024337344 +0.038268007
-0.001369907 +0.001141722 -0.001055518
+0.000324863 +0.000881106 +0.000202885
-0.001798030 +0.001888621 -0.001594496
+0.002637548 -0.003854618 +0.001752115
+0.002740887 -0.003839811 -0.002678821
-0.002010949 +0.001833456 -0.001070536
-0.000783339 +0.001283522 -0.001249981
-0.001940070 +0.002119862 -0.000198622
-0.003160703 -0.007582218 -0.008665738
-0.018654072 -0.018185064 -0.026696752
-0.000199288 -0.002033977 +0.000135152
+0.000114979 -0.001002150 -0.001766076
-0.001031756 -0.000418023 -0.001241085
+0.006218406 +0.003355066 +0.005687910
+0.018487157 +0.023759798 +0.037985390
-0.001387512 +0.001153631 -0.001056007
+0.000306700 +0.000902451 +0.000190682
-0.001790668 +0.001923416 -0.001596251
+0.002660126 -0.003841100 +0.001765598
+0.003094785 -0.003426937 -0.002310947
-0.002048856 +0.001837209 -0.001093173
-0.000802164 +0.001293567 -0.001257112
-0.001972583 +0.002128070 -0.000218641
-0.003199941 -0.007647905 -0.008738996
-0.018416576 -0.017953119 -0.026682426
-0.000206839 -0.002050060 +0.000154893
+0.000099330 -0.001018918 -0.001760915
-0.001045355 -0.000420243 -0.001237585
+0.006240644 +0.003295106 +0.005696040
+0.018063995 +0.023199945 +0.037711819
-0.001404656 +0.001165322 -0.001056418
+0.000288569 +0.000923201 +0.000178436
-0.001783559 +0.001957215 -0.001597829
+0.002667358 -0.003843576 +0.001770972
+0.003428657 -0.003037216 -0.001962333
-0.002077843 +0.001849020 -0.001109931
-0.000816655 +0.001306577 -0.001265620
-0.002003545 +0.002137994 -0.000235643
-0.003236829 -0.007710633 -0.008809966
-0.018175075 -0.017715069 -0.026658252
-0.000214252 -0.002065246 +0.000173771
+0.000083853 -0.001035682 -0.001756370
-0.001058082 -0.000422511 -0.001234071
+0.006262086 +0.003236500 +0.005703491
+0.017653547 +0.022657283 +0.037447079
-0.001421338 +0.001176798 -0.001056739
+0.000270485 +0.000943352 +0.000166145
-0.001776691 +0.001990027 -0.001599236
+0.002684441 -0.003834190 +0.001785424
+0.003739958 -0.002671453 -0.001634687
-0.002115852 +0.001852874 -0.001132160
-0.000831376 +0.001317614 -0.001273312
-0.002032380 +0.002143845 -0.000255599
-0.003271523 -0.007770566 -0.008878708
-0.017929663 -0.017471299 -0.026624593
-0.000221546 -0.002079568 +0.000191770
+0.000068533 -0.001052404 -0.001752396
-0.001069959 -0.000424795 -0.001230529
+0.006282726 +0.003179200 +0.005710243
+0.017255502 +0.022131427 +0.037190941
-0.001437577 +0.001188065 -0.001056981
+0.000252465 +0.000962929 +0.000153843
-0.001770062 +0.002021873 -0.001600488
+0.002702346 -0.003829489 +0.001799549
+0.004028620 -0.002328420 -0.001327392
-0.002151113 +0.001857660 -0.001154383
-0.000845966 +0.001328272 -0.001282502
-0.002061498 +0.002151120 -0.000272356
-0.003304095 -0.007827708 -0.008945233
-0.017680819 -0.017221851 -0.026581658
-0.000228791 -0.002093032 +0.000208879
+0.000053233 -0.001069275 -0.001749031
-0.001080942 -0.000427116 -0.001226961
+0.006302602 +0.003123182 +0.005716382
+0.016869590 +0.021621745 +0.036943137
-0.001453353 +0.001199113 -0.001057148
+0.000234508 +0.000981947 +0.000141522
-0.001763649 +0.002052807 -0.001601576
+0.002707221 -0.003821480 +0.001816536
+0.004300484 -0.002010355 -0.001038211
-0.002183735 +0.001862305 -0.001174184
-0.000857292 +0.001340469 -0.001290600
-0.002084850 +0.002154039 -0.000295543
-0.003335001 -0.007882690 -0.009009846
-0.017428533 -0.016967395 -0.026530048
-0.000235979 -0.002105695 +0.000225149
+0.000038246 -0.001085928 -0.001746143
-0.001091097 -0.000429436 -0.001223328
+0.006321703 +0.003068369 +0.005721880
+0.016495019 +0.021127682 +0.036703247
-0.001468703 +0.001209957 -0.001057247
+0.000216634 +0.001000440 +0.000129198
-0.001757450 +0.002082855 -0.001602512
+0.002721388 -0.003825240 +0.001818136
+0.004552120 -0.001711342 -0.000766121
-0.002216429 +0.001869326 -0.001192281
-0.000869544 +0.001351177 -0.001295418
-0.002113317 +0.002163615 -0.000308294
-0.003364191 -0.007935422 -0.009072519
-0.017173509 -0.016707931 -0.026470226
-0.000243122 -0.002117615 +0.000240591
+0.000023408 -0.001102563 -0.001743769
-0.001100427 -0.000431775 -0.001219660
+0.006340112 +0.003014769 +0.005726783
+0.016131715 +0.020648728 +0.036471131
-0.001483639 +0.001220604 -0.001057264
+0.000198834 +0.001018399 +0.000116869
-0.001751456 +0.002112041 -0.001603299
+0.002736844 -0.003824019 +0.001824983
+0.004784292 -0.001433414 -0.000512247
-0.002248471 +0.001874802 -0.001211410
-0.000882574 +0.001359822 -0.001300070
-0.002139480 +0.002170189 -0.000323456
-0.003391911 -0.007986158 -0.009133351
-0.016916056 -0.016443901 -0.026402635
-0.000250263 -0.002128784 +0.000255202
+0.000008691 -0.001119196 -0.001741873
-0.001108929 -0.000434141 -0.001215974
+0.006357837 +0.002962326 +0.005731143
+0.015779262 +0.020184313 +0.036246403
-0.001498156 +0.001231060 -0.001057212
+0.000181126 +0.001035853 +0.000104543
-0.001745654 +0.002140405 -0.001603946
+0.002738552 -0.003824847 +0.001839964
+0.005003520 -0.001177209 -0.000272716
-0.002278580 +0.001880736 -0.001231057
-0.000889915 +0.001373009 -0.001311099
-0.002161294 +0.002173961 -0.000340836
-0.003418393 -0.008035001 -0.009192485
-0.016656904 -0.016175627 -0.026327801
-0.000257416 -0.002139223 +0.000269048
-0.000005803 -0.001135756 -0.001740460
-0.001116629 -0.000436589 -0.001212256
+0.006374754 +0.002910959 +0.005734856
+0.015437491 +0.019734261 +0.036029000
-0.001512258 +0.001241319 -0.001057069
+0.000163624 +0.001052881 +0.000092320
-0.001740024 +0.002167948 -0.001604457
+0.002751236 -0.003817577 +0.001853914
+0.005206035 -0.000940529 -0.000049393
-0.002314903 +0.001880750 -0.001252308
-0.000899286 +0.001383369 -0.001315978
-0.002182877 +0.002177083 -0.000360031
-0.003443646 -0.008082146 -0.009250019
-0.016396133 -0.015903901 -0.026246487
-0.000264543 -0.002148974 +0.000282147
-0.000020167 -0.001152272 -0.001739425
-0.001123580 -0.000439080 -0.001208522
+0.006391184 +0.002860720 +0.005738170
+0.015105798 +0.019297890 +0.035818538
-0.001525998 +0.001251407 -0.001056881
+0.000146085 +0.001069374 +0.000080016
-0.001734580 +0.002194742 -0.001604827
+0.002764388 -0.003828972 +0.001848981
+0.005391762 -0.000719275 +0.000160011
-0.002341695 +0.001889561 -0.001267354
-0.000910039 +0.001392294 -0.001318443
-0.002209238 +0.002187776 -0.000368381
-0.003467830 -0.008127734 -0.009305937
-0.016134425 -0.015628800 -0.026159230
-0.000271616 -0.002158041 +0.000294595
-0.000034469 -0.001168902 -0.001738901
-0.001129825 -0.000441579 -0.001204783
+0.006407067 +0.002811625 +0.005741063
+0.014783590 +0.018874251 +0.035614548
-0.001539354 +0.001261282 -0.001056674
+0.000128671 +0.001085402 +0.000067775
-0.001729311 +0.002220837 -0.001605092
+0.002765037 -0.003832313 +0.001857420
+0.005567540 -0.000517003 +0.000357210
-0.002368797 +0.001896296 -0.001284151
-0.000916449 +0.001403411 -0.001325185
-0.002228781 +0.002191332 -0.000384266
-0.003491147 -0.008171867 -0.009360333
-0.015873025 -0.015351866 -0.026067225
-0.000278660 -0.002166396 +0.000306301
-0.000048549 -0.001185414 -0.001738787
-0.001135313 -0.000444236 -0.001201060
+0.006422384 +0.002763526 +0.005743518
+0.014471175 +0.018463748 +0.035417263
-0.001552370 +0.001270999 -0.001056376
+0.000111307 +0.001100959 +0.000055487
-0.001724188 +0.002246194 -0.001605216
+0.002776958 -0.003831860 +0.001866980
+0.005730240 -0.000329704 +0.000542134
-0.002402829 +0.001897607 -0.001305123
-0.000923884 +0.001413215 -0.001330319
-0.002249265 +0.002196315 -0.000397891
-0.003513605 -0.008214576 -0.009413281
-0.015612487 -0.015073731 -0.025971111
-0.000285609 -0.002174040 +0.000317369
-0.000062467 -0.001201892 -0.001739032
-0.001140084 -0.000446961 -0.001197352
+0.006437087 +0.002716449 +0.005745481
+0.014168224 +0.018065907 +0.035226409
-0.001565021 +0.001280555 -0.001056004
+0.000094114 +0.001116073 +0.000043286
-0.001719225 +0.002270832 -0.001605219
+0.002777895 -0.003836669 +0.001878717
+0.005881268 -0.000157675 +0.000714972
-0.002428207 +0.001904470 -0.001320884
-0.000929314 +0.001424989 -0.001338441
-0.002267712 +0.002198936 -0.000414509
-0.003535347 -0.008256085 -0.009464838
-0.015352822 -0.014794882 -0.025871368
-0.000292447 -0.002180977 +0.000327827
-0.000076211 -0.001218311 -0.001739660
-0.001144183 -0.000449737 -0.001193627
+0.006451284 +0.002670323 +0.005747077
+0.013873895 +0.017679720 +0.035041452
-0.001577333 +0.001289938 -0.001055580
+0.000076992 +0.001130787 +0.000031077
-0.001714397 +0.002294822 -0.001605111
+0.002788398 -0.003844895 +0.001885890
+0.006020622 +0.000003485 +0.000877199
-0.002459619 +0.001906735 -0.001339430
-0.000933983 +0.001437170 -0.001344537
-0.002288029 +0.002206361 -0.000425010
-0.003556431 -0.008296409 -0.009515150
-0.015094594 -0.014516022 -0.025768597
-0.000299138 -0.002187178 +0.000337752
-0.000089795 -0.001234648 -0.001740593
-0.001147584 -0.000452516 -0.001189899
+0.006464972 +0.002625158 +0.005748311
+0.013588200 +0.017305032 +0.034862357
-0.001589307 +0.001299164 -0.001055109
+0.000059995 +0.001145086 +0.000018916
-0.001709704 +0.002318165 -0.001604893
+0.002797904 -0.003849948 +0.001881100
+0.006151080 +0.000150716 +0.001031116
-0.002485806 +0.001912824 -0.001354706
-0.000942984 +0.001443613 -0.001344441
-0.002308080 +0.002213567 -0.000433993
-0.003576805 -0.008335499 -0.009564039
-0.014838216 -0.014237734 -0.025663361
-0.000305598 -0.002192662 +0.000347127
-0.000103242 -0.001250948 -0.001741864
-0.001150332 -0.000455303 -0.001186163
+0.006478147 +0.002580922 +0.005749144
+0.013310838 +0.016941603 +0.034688963
-0.001600951 +0.001308225 -0.001054579
+0.000043130 +0.001158994 +0.000006810
-0.001705143 +0.002340881 -0.001604563
+0.002801061 -0.003857384 +0.001888283
+0.006271269 +0.000287804 +0.001173804
-0.002511391 +0.001918041 -0.001371090
-0.000946940 +0.001453648 -0.001350786
-0.002325491 +0.002218597 -0.000444987
-0.003596580 -0.008373454 -0.009611663
-0.014583917 -0.013960376 -0.025555803
-0.000311812 -0.002197383 +0.000355981
-0.000116546 -0.001267174 -0.001743429
-0.001152392 -0.000458057 -0.001182396
+0.006490875 +0.002537591 +0.005749638
+0.013041583 +0.016588964 +0.034521014
-0.001612306 +0.001317131 -0.001053997
+0.000026397 +0.001172513 -0.000005244
-0.001700720 +0.002362996 -0.001604140
+0.002807839 -0.003862139 +0.001901865
+0.006381798 +0.000414506 +0.001306888
-0.002540995 +0.001920578 -0.001388578
-0.000949896 +0.001465182 -0.001358180
-0.002341650 +0.002221236 -0.000459014
-0.003615651 -0.008410226 -0.009658034
-0.014331829 -0.013684082 -0.025446441
-0.000317747 -0.002201372 +0.000364379
-0.000129753 -0.001283389 -0.001745252
-0.001153794 -0.000460715 -0.001178598
+0.006503186 +0.002495173 +0.005749821
+0.012780174 +0.016246684 +0.034358365
-0.001623337 +0.001325891 -0.001053364
+0.000009788 +0.001185641 -0.000017244
-0.001696419 +0.002384529 -0.001603613
+0.002816765 -0.003864080 +0.001906290
+0.006484908 +0.000528777 +0.001433163
-0.002569033 +0.001922486 -0.001405939
-0.000956378 +0.001473313 -0.001361071
-0.002358174 +0.002226693 -0.000469592
-0.003634192 -0.008446039 -0.009703192
-0.014081675 -0.013409287 -0.025335244
-0.000323333 -0.002204587 +0.000372312
-0.000142754 -0.001299426 -0.001747330
-0.001154560 -0.000463253 -0.001174736
+0.006515019 +0.002453564 +0.005749681
+0.012526267 +0.015914582 +0.034200842
-0.001634068 +0.001334499 -0.001052691
-0.000006704 +0.001198429 -0.000029197
-0.001692221 +0.002405505 -0.001602998
+0.002818114 -0.003884296 +0.001901136
+0.006578100 +0.000636477 +0.001550023
-0.002588120 +0.001932618 -0.001416536
-0.000959362 +0.001483568 -0.001365651
-0.002377095 +0.002236410 -0.000473951
-0.003652093 -0.008480644 -0.009747154
-0.013833752 -0.013135778 -0.025222343
-0.000328553 -0.002207051 +0.000379791
-0.000155664 -0.001315421 -0.001749644
-0.001154682 -0.000465680 -0.001170822
+0.006526415 +0.002412770 +0.005749220
+0.012279648 +0.015592128 +0.034048227
-0.001644508 +0.001342971 -0.001051965
-0.000023028 +0.001210877 -0.000041066
-0.001688141 +0.002425930 -0.001602298
+0.002827053 -0.003890297 +0.001907053
+0.006663888 +0.000733741 +0.001659217
-0.002616348 +0.001934996 -0.001433130
-0.000963263 +0.001492394 -0.001369950
-0.002392989 +0.002241524 -0.000483185
-0.003669360 -0.008514219 -0.009789868
-0.013588117 -0.012863800 -0.025107873
-0.000333367 -0.002208767 +0.000386828
-0.000168469 -0.001331332 -0.001752222
-0.001154143 -0.000467951 -0.001166864
+0.006537479 +0.002372836 +0.005748545
+0.012040154 +0.015279183 +0.033900360
-0.001654656 +0.001351295 -0.001051212
-0.000039270 +0.001222957 -0.000052902
-0.001684176 +0.002445839 -0.001601510
+0.002835102 -0.003897368 +0.001917390
+0.006741183 +0.000821954 +0.001759886
-0.002642181 +0.001938739 -0.001449635
-0.000967630 +0.001500849 -0.001375901
-0.002408146 +0.002245949 -0.000493686
-0.003686039 -0.008546700 -0.009831479
-0.013344665 -0.012593191 -0.024992082
-0.000337764 -0.002209796 +0.000393470
-0.000181136 -0.001347122 -0.001754948
-0.001153000 -0.000470054 -0.001162848
+0.006548159 +0.002333690 +0.005747621
+0.011807540 +0.014975326 +0.033757113
-0.001664542 +0.001359478 -0.001050416
-0.000055362 +0.001234702 -0.000064674
-0.001680303 +0.002465236 -0.001600626
+0.002835828 -0.003904933 +0.001924302
+0.006812174 +0.000900352 +0.001854364
-0.002665150 +0.001941996 -0.001463996
-0.000969907 +0.001510613 -0.001381803
-0.002421020 +0.002250326 -0.000503303
+0.008529275 +0.006880746 -0.000916669
+0.021567130 +0.027515835 +0.024584131
-0.000291743 -0.000316435 -0.001416346
+0.002231191 +0.000098390 -0.004132804
+0.000005557 -0.001323249 -0.000649435
+0.003483671 +0.008466116 +0.003204251
+0.059377297 +0.078707372 +0.065335478
+0.000224004 +0.000264356 -0.000849831
+0.000711189 -0.001163029 +0.000334179
-0.002820005 -0.001876855 -0.001046026
-0.007140557 -0.009390079 -0.007685828
-0.087973399 -0.108856511 -0.079235564
-0.001020633 +0.000889925 -0.001180721
+0.000995470 -0.000416810 +0.000150117
+0.002086737 +0.000578514 +0.003335077
+0.007800019 +0.006098323 -0.001092314
+0.016960736 +0.022206169 +0.020288960
-0.000259375 -0.000345097 -0.001403998
+0.002099794 +0.000049541 -0.003977001
+0.000020907 -0.001259228 -0.000703785
+0.003514413 +0.008304820 +0.003277366
+0.058082801 +0.077014163 +0.064329243
+0.000185377 +0.000279960 -0.000855610
+0.000723413 -0.001103180 +0.000347932
-0.002765564 -0.001754298 -0.001064891
-0.006456648 -0.009091327 -0.007021249
-0.081889235 -0.101550708 -0.074502233
-0.000954384 +0.000914264 -0.001084127
+0.000964318 -0.000367468 +0.000110522
+0.001940573 +0.000650605 +0.003176438
+0.007113542 +0.005355127 -0.001275938
+0.012837010 +0.017492803 +0.016402119
-0.000228910 -0.000376150 -0.001387658
+0.001976623 +0.000003726 -0.003830057
+0.000031348 -0.001198091 -0.000754146
+0.003550447 +0.008144471 +0.003350995
+0.056786157 +0.075304537 +0.063324683
+0.000145755 +0.000296431 -0.000861283
+0.000734109 -0.001043245 +0.000360609
-0.002712862 -0.001632256 -0.001083665
-0.005810274 -0.008802518 -0.006394355
-0.076282799 -0.094855169 -0.070124873
-0.000894750 +0.000940253 -0.000996677
+0.000929070 -0.000316195 +0.000067748
+0.001795494 +0.000721318 +0.003023634
+0.006467122 +0.004649207 -0.001466281
+0.009155676 +0.013319365 +0.012888576
-0.000200465 -0.000409382 -0.001367664
+0.001861087 -0.000039519 -0.003691518
+0.000037272 -0.001140030 -0.000800800
+0.003591174 +0.007985531 +0.003424812
+0.055491426 +0.073584741 +0.062324879
+0.000105410 +0.000313648 -0.000866850
+0.000743338 -0.000983416 +0.000372248
-0.002661991 -0.001511112 -0.001102306
-0.005213728 -0.008517086 -0.005800622
-0.071112960 -0.088717239 -0.066074074
-0.000840890 +0.000966783 -0.000915262
+0.000893356 -0.000262213 +0.000025106
+0.001657437 +0.000785453 +0.002867573
+0.005859177 +0.003979015 -0.001661896
+0.005873169 +0.009627474 +0.009711500
-0.000174097 -0.000444657 -0.001344309
+0.001752897 -0.000080221 -0.003560998
+0.000038996 -0.001084713 -0.000843948
+0.003635927 +0.007827741 +0.003498459
+0.054199367 +0.071858675 +0.061330766
+0.000064377 +0.000331561 -0.000872335
+0.000751026 -0.000923609 +0.000382788
-0.002612889 -0.001390963 -0.001120757
-0.004641802 -0.008243864 -0.005256007
-0.066340964 -0.083076529 -0.062316612
-0.000797494 +0.000993939 -0.000841830
+0.000852285 -0.000210342 -0.000013802
+0.001516455 +0.000852097 +0.002723895
+0.005288349 +0.003343862 -0.001861396
+0.002947693 +0.006368224 +0.006837252
-0.000149753 -0.000481779 -0.001317895
+0.001651740 -0.000118520 -0.003438237
+0.000036757 -0.001032117 -0.000883729
+0.003684294 +0.007671588 +0.003571734
+0.052913983 +0.070132558 +0.060345553
+0.000022851 +0.000350062 -0.000877705
+0.000757194 -0.000864062 +0.000392206
-0.002565620 -0.001272139 -0.001138969
-0.004104210 -0.007980755 -0.004740715
-0.061931259 -0.077889377 -0.058828023
-0.000759699 +0.001022339 -0.000776320
+0.000808317 -0.000157757 -0.000054777
+0.001378499 +0.000915396 +0.002583081
+0.004752316 +0.002741498 -0.002063886
+0.000335670 +0.003487365 +0.004229750
-0.000127498 -0.000520566 -0.001288766
+0.001557061 -0.000154714 -0.003322821
+0.000030906 -0.000982212 -0.000920379
+0.003735831 +0.007517062 +0.003644296
+0.051637115 +0.068410243 +0.059370610
-0.000019089 +0.000369119 -0.000882945
+0.000761893 -0.000804767 +0.000400562
-0.002520158 -0.001154759 -0.001156897
-0.003613313 -0.007729086 -0.004249578
-0.057835838 -0.073105152 -0.055573512
-0.000727320 +0.001051695 -0.000718774
+0.000767405 -0.000099894 -0.000102846
+0.001246401 +0.000974109 +0.002444245
+0.004249227 +0.002170960 -0.002268182
-0.002001967 +0.000937906 +0.001856650
-0.000107339 -0.000560817 -0.001257209
+0.001468593 -0.000188904 -0.003214432
+0.000021698 -0.000934985 -0.000954025
+0.003789977 +0.007364578 +0.003716005
+0.050372407 +0.066697318 +0.058408646
-0.000061197 +0.000388604 -0.000888081
+0.000765146 -0.000745938 +0.000407821
-0.002476521 -0.001039144 -0.001174493
-0.003142694 -0.007476824 -0.003789812
-0.054024230 -0.068680491 -0.052528962
-0.000708834 +0.001075118 -0.000670227
+0.000721932 -0.000044752 -0.000145016
+0.001116779 +0.001029646 +0.002307254
+0.003777931 +0.001630649 -0.002474244
-0.004098296 -0.001327069 -0.000311689
-0.000088784 -0.000602552 -0.001222973
+0.001385629 -0.000221538 -0.003112757
+0.000009124 -0.000889734 -0.000984782
+0.003845386 +0.007214332 +0.003786056
+0.049119627 +0.064997134 +0.057460132
-0.000102714 +0.000407992 -0.000893728
+0.000767490 -0.000686962 +0.000414772
-0.002435018 -0.000926304 -0.001191299
-0.002699401 -0.007243850 -0.003376957
-0.050462825 -0.064568058 -0.049665766
-0.000690526 +0.001104420 -0.000624274
+0.000671910 +0.000007004 -0.000183560
+0.000984953 +0.001088748 +0.002183891
+0.003334927 +0.001118584 -0.002679056
-0.005980308 -0.003344581 -0.002299091
-0.000072659 -0.000645267 -0.001187467
+0.001308429 -0.000252117 -0.003017232
-0.000005993 -0.000847541 -0.001013008
+0.003903393 +0.007065765 +0.003855273
+0.047882087 +0.063311848 +0.056526544
-0.000144998 +0.000428166 -0.000898650
+0.000767889 -0.000629082 +0.000419886
-0.002394919 -0.000814468 -0.001208179
-0.002299393 -0.007021037 -0.002980250
-0.047123272 -0.060732781 -0.046965363
-0.000675701 +0.001135013 -0.000584382
+0.000625395 +0.000062563 -0.000227492
+0.000861413 +0.001140597 +0.002058526
+0.002918698 +0.000633732 -0.002881852
-0.007668115 -0.005144124 -0.004123895
-0.000058835 -0.000688854 -0.001150816
+0.001236620 -0.000280873 -0.002927649
-0.000023524 -0.000808194 -0.001038806
+0.003963568 +0.006918994 +0.003923528
+0.046661793 +0.061645340 +0.055609487
-0.000187916 +0.000449056 -0.000902846
+0.000766362 -0.000572375 +0.000423152
-0.002356176 -0.000703826 -0.001225102
-0.001914552 -0.006802040 -0.002608657
-0.043991193 -0.057145772 -0.044413966
-0.000673775 +0.001160243 -0.000554705
+0.000575739 +0.000115173 -0.000268501
+0.000739845 +0.001190591 +0.001938647
+0.002529059 +0.000174738 -0.003084929
-0.009175997 -0.006745840 -0.005797092
-0.000046088 -0.000733391 -0.001111981
+0.001168973 -0.000308725 -0.002843782
-0.000043885 -0.000770513 -0.001062160
+0.004023105 +0.006775519 +0.003989172
+0.045459816 +0.060003084 +0.054710424
-0.000229111 +0.000469154 -0.000908134
+0.000764645 -0.000515355 +0.000426971
-0.002319883 -0.000597347 -0.001240681
-0.001565235 -0.006599351 -0.002259247
-0.041053591 -0.053791848 -0.042003286
-0.000669986 +0.001189926 -0.000526234
+0.000527675 +0.000170786 -0.000313673
+0.000621537 +0.001237988 +0.001821397
+0.002162261 -0.000260475 -0.003284871
-0.010518099 -0.008171577 -0.007332521
-0.000035441 -0.000778423 -0.001072463
+0.001105995 -0.000335044 -0.002765119
-0.000066219 -0.000735511 -0.001083354
+0.004084165 +0.006633823 +0.004053584
+0.044276663 +0.058383493 +0.053828938
-0.000270827 +0.000489883 -0.000912686
+0.000761119 -0.000459556 +0.000429022
-0.002284841 -0.000492160 -0.001256298
-0.001229061 -0.006399309 -0.001936647
-0.038296341 -0.050643108 -0.039721725
-0.000679376 +0.001212513 -0.000507002
+0.000477736 +0.000222792 -0.000353665
+0.000505582 +0.001284389 +0.001711197
+0.001817597 -0.000672883 -0.003482133
-0.011705235 -0.009433895 -0.008737677
-0.000026369 -0.000823809 -0.001032088
+0.001047092 -0.000360185 -0.002691430
-0.000090440 -0.000702850 -0.001102543
+0.004145578 +0.006494551 +0.004116168
+0.043114056 +0.056790690 +0.052966467
-0.000312192 +0.000510662 -0.000917133
+0.000756390 -0.000404538 +0.000430120
-0.002251381 -0.000389363 -0.001271450
-0.000918117 -0.006213447 -0.001649600
-0.035710796 -0.047691261 -0.037564083
-0.000686223 +0.001241016 -0.000488089
+0.000423910 +0.000270389 -0.000388408
+0.000391087 +0.001330992 +0.001608393
+0.001493909 -0.001063374 -0.003676230
-0.012750739 -0.010546830 -0.010022610
-0.000018712 -0.000869324 -0.000991036
+0.000992046 -0.000384215 -0.002622461
-0.000116370 -0.000672405 -0.001119818
+0.004207064 +0.006357741 +0.004176797
+0.041973260 +0.055226879 +0.052123814
-0.000353125 +0.000531455 -0.000921456
+0.000750481 -0.000350379 +0.000430277
-0.002219473 -0.000289023 -0.001286138
-0.000635337 -0.006039704 -0.001371729
-0.033286878 -0.044921615 -0.035526092
-0.000696966 +0.001268388 -0.000474854
+0.000374807 +0.000320871 -0.000429124
+0.000281668 +0.001373555 +0.001507503
+0.001189394 -0.001433653 -0.003867188
-0.013670824 -0.011525883 -0.011199150
-0.000012312 -0.000914756 -0.000949529
+0.000940466 -0.000407328 -0.002557895
-0.000143786 -0.000644160 -0.001135324
+0.004268417 +0.006223418 +0.004235428
+0.040855150 +0.053693329 +0.051301308
-0.000393548 +0.000552228 -0.000925644
+0.000743492 -0.000297119 +0.000429584
-0.002189043 -0.000191131 -0.001300350
-0.000369113 -0.005870773 -0.001106979
-0.031009382 -0.042320422 -0.033596842
-0.000716336 +0.001292272 -0.000467192
+0.000326336 +0.000371539 -0.000469993
+0.000176001 +0.001411563 +0.001406913
+0.000903254 -0.001784212 -0.004054475
-0.014481500 -0.012387222 -0.012280367
-0.000006964 -0.000959873 -0.000907673
+0.000892263 -0.000429538 -0.002497493
-0.000172340 -0.000617990 -0.001149196
+0.004329568 +0.006091741 +0.004292166
+0.039760229 +0.052190904 +0.050499310
-0.000433433 +0.000572934 -0.000929707
+0.000735481 -0.000244824 +0.000428050
-0.002160039 -0.000095719 -0.001314067
-0.000119977 -0.005707947 -0.000870203
-0.028862387 -0.039875311 -0.031763749
-0.000737739 +0.001315195 -0.000463201
+0.000274289 +0.000417888 -0.000505744
+0.000072327 +0.001450669 +0.001313549
+0.000634514 -0.002116404 -0.004237978
-0.015196577 -0.013148103 -0.013277638
-0.000002584 -0.001004492 -0.000865639
+0.000847012 -0.000450920 -0.002441001
-0.000201996 -0.000593646 -0.001161376
+0.004390126 +0.005962473 +0.004346803
+0.038688564 +0.050721225 +0.049717770
-0.000472759 +0.000593558 -0.000933629
+0.000726461 -0.000193434 +0.000425679
-0.002132388 -0.000002798 -0.001327309
+0.000104564 -0.005562373 -0.000659669
-0.026833099 -0.037565796 -0.030018539
-0.000756103 +0.001343055 -0.000457607
+0.000224529 +0.000462510 -0.000540415
-0.000029980 +0.001489394 +0.001227723
+0.000381513 -0.002431303 -0.004417574
-0.015829549 -0.013822430 -0.014201740
+0.000001013 -0.001048460 -0.000823555
+0.000804517 -0.000471583 -0.002388035
-0.000232405 -0.000571197 -0.001172151
+0.004450093 +0.005835802 +0.004399445
+0.037640770 +0.049284245 +0.048956802
-0.000511469 +0.000614060 -0.000937428
+0.000716540 -0.000143041 +0.000422567
-0.002106043 +0.000087671 -0.001340079
+0.000318687 -0.005418802 -0.000455065
-0.024908885 -0.035379449 -0.028352112
-0.000784983 +0.001364871 -0.000460137
+0.000175209 +0.000506744 -0.000575831
-0.000127987 +0.001524206 +0.001142188
+0.000143567 -0.002729662 -0.004592964
-0.016389070 -0.014421563 -0.015059649
+0.000003892 -0.001091593 -0.000781591
+0.000764500 -0.000491653 -0.002338534
-0.000263407 -0.000550481 -0.001181525
+0.004509215 +0.005711725 +0.004450025
+0.036617607 +0.047881499 +0.048216731
-0.000549523 +0.000634392 -0.000941090
+0.000705711 -0.000093679 +0.000418676
-0.002080945 +0.000175640 -0.001352370
+0.000516033 -0.005284874 -0.000261352
-0.023082634 -0.033306044 -0.026759555
-0.000814280 +0.001387629 -0.000465557
+0.000125895 +0.000549514 -0.000612305
-0.000222833 +0.001556843 +0.001058854
-0.000080458 -0.003012160 -0.004763501
-0.016881830 -0.014953815 -0.015857969
+0.000005898 -0.001133705 -0.000739983
+0.000727022 -0.000510967 -0.002292144
-0.000294697 -0.000531459 -0.001189510
+0.004567933 +0.005589710 +0.004498863
+0.035619813 +0.046512697 +0.047498018
-0.000587670 +0.000655065 -0.000943923
+0.000693540 -0.000045977 +0.000413283
-0.002056525 +0.000262145 -0.001364636
+0.000690725 -0.005157406 -0.000085714
-0.021346992 -0.031338114 -0.025234676
-0.000842762 +0.001409416 -0.000471179
+0.000078873 +0.000591329 -0.000647098
-0.000312204 +0.001586876 +0.000978969
-0.000291352 -0.003280153 -0.004930179
-0.017312023 -0.015425396 -0.016599067
+0.000007291 -0.001174952 -0.000698500
+0.000691457 -0.000529917 -0.002248766
-0.000326348 -0.000513848 -0.001196337
+0.004625001 +0.005470690 +0.004545298
+0.034645129 +0.045177907 +0.046798772
-0.000624362 +0.000675025 -0.000947307
+0.000681163 +0.000001324 +0.000408059
-0.002033716 +0.000345272 -0.001375991
+0.000861633 -0.005038968 +0.000067380
-0.019696812 -0.029465696 -0.023773857
-0.000876799 +0.001430511 -0.000479346
+0.000030161 +0.000628930 -0.000677005
-0.000402806 +0.001618797 +0.000907305
-0.000490136 -0.003534282 -0.005092348
-0.017683520 -0.015840385 -0.017286350
+0.000007909 -0.001215195 -0.000657440
+0.000657814 -0.000548393 -0.002208235
-0.000358132 -0.000497703 -0.001202017
+0.004680927 +0.005354226 +0.004589717
+0.033694886 +0.043877317 +0.046119741
-0.000660319 +0.000694763 -0.000950567
+0.000668103 +0.000047575 +0.000402225
-0.002011993 +0.000425992 -0.001386884
+0.001019617 -0.004928089 +0.000212587
-0.018130992 -0.027685487 -0.022377833
-0.000910880 +0.001451991 -0.000489964
-0.000018378 +0.000664605 -0.000707470
-0.000490359 +0.001648843 +0.000837564
-0.000677417 -0.003775171 -0.005249865
-0.017998586 -0.016202116 -0.017921135
+0.000007702 -0.001254426 -0.000616938
+0.000625908 -0.000566476 -0.002170344
-0.000389923 -0.000482933 -0.001206673
+0.004735596 +0.005240344 +0.004632124
+0.032769251 +0.042611710 +0.045460868
-0.000695523 +0.000714249 -0.000953714
+0.000654360 +0.000092753 +0.000395783
-0.001991318 +0.000504302 -0.001397315
+0.001154659 -0.004825866 +0.000360310
-0.016648812 -0.025992237 -0.021047036
-0.000944561 +0.001472726 -0.000502584
-0.000060898 +0.000703436 -0.000743307
-0.000569539 +0.001672546 +0.000765256
-0.000854151 -0.004003628 -0.005402964
-0.018260692 -0.016512628 -0.018506183
+0.000006559 -0.001292684 -0.000576995
+0.000595602 -0.000584296 -0.002134947
-0.000421596 -0.000469509 -0.001210360
+0.004789081 +0.005128996 +0.004672616
+0.031867676 +0.041379512 +0.044821538
-0.000729969 +0.000733480 -0.000956729
+0.000640090 +0.000136886 +0.000388883
-0.001971622 +0.000580330 -0.001407310
+0.001290955 -0.004723392 +0.000489031
-0.015244022 -0.024386514 -0.019776051
-0.000986664 +0.001487500 -0.000519322
-0.000105158 +0.000738107 -0.000773351
-0.000649697 +0.001698642 +0.000700367
-0.001021060 -0.004220751 -0.005551796
-0.018471657 -0.016774443 -0.019042610
+0.000004447 -0.001329968 -0.000537736
+0.000566762 -0.000601788 -0.002101862
-0.000453112 -0.000457333 -0.001213143
+0.004841242 +0.005020009 +0.004711183
+0.030989623 +0.040180896 +0.044201162
-0.000763694 +0.000752450 -0.000959622
+0.000625237 +0.000179999 +0.000381454
-0.001952853 +0.000654104 -0.001416869
+0.001417507 -0.004633748 +0.000593873
-0.013916562 -0.022862041 -0.018565518
-0.001023411 +0.001508014 -0.000533048
-0.000151499 +0.000767411 -0.000797853
-0.000730137 +0.001726852 +0.000643196
-0.001178635 -0.004426878 -0.005696321
-0.018635336 -0.016989509 -0.019532867
+0.000001349 -0.001366319 -0.000499188
+0.000539309 -0.000618999 -0.002070986
-0.000484393 -0.000446414 -0.001215148
+0.004892010 +0.004913458 +0.004747858
+0.030135353 +0.039015968 +0.043599865
-0.000796637 +0.000771136 -0.000962402
+0.000609891 +0.000222065 +0.000373565
-0.001934961 +0.000725651 -0.001425990
+0.001523323 -0.004552005 +0.000703531
-0.012664233 -0.021416175 -0.017416106
-0.001058983 +0.001528076 -0.000548147
-0.000191480 +0.000800120 -0.000827645
-0.000802400 +0.001748921 +0.000583083
-0.001327770 -0.004623061 -0.005836889
-0.018757312 -0.017161277 -0.019980887
-0.000002767 -0.001401756 -0.000461410
+0.000513187 -0.000635888 -0.002042100
-0.000515328 -0.000436714 -0.001216445
+0.004941395 +0.004809320 +0.004782742
+0.029304400 +0.037883763 +0.043017062
-0.000828806 +0.000789524 -0.000965039
+0.000594146 +0.000263134 +0.000365274
-0.001917895 +0.000795023 -0.001434713
+0.001630037 -0.004471111 +0.000809011
-0.011478773 -0.020047262 -0.016321533
-0.001103498 +0.001542120 -0.000569618
-0.000230288 +0.000831713 -0.000857876
-0.000874083 +0.001771154 +0.000527481
-0.001468564 -0.004809354 -0.005973462
-0.018843165 -0.017293829 -0.020390585
-0.000007918 -0.001436273 -0.000424411
+0.000488154 -0.000652713 -0.002015185
-0.000545843 -0.000428172 -0.001217097
+0.004989509 +0.004707661 +0.004815897
+0.028496983 +0.036784415 +0.042452692
-0.000860214 +0.000807632 -0.000967559
+0.000577959 +0.000303102 +0.000356569
-0.001901637 +0.000862244 -0.001443007
+0.001729433 -0.004392307 +0.000902227
-0.010356243 -0.018752515 -0.015279776
-0.001146083 +0.001556397 -0.000589600
-0.000270594 +0.000859278 -0.000881926
-0.000943178 +0.001792329 +0.000472003
-0.001601545 -0.004986467 -0.006106101
-0.018896848 -0.017392655 -0.020766137
-0.000014072 -0.001469928 -0.000388191
+0.000464185 -0.000669402 -0.001990089
-0.000575915 -0.000420667 -0.001217171
+0.005036176 +0.004608242 +0.004847299
+0.027711718 +0.035716833 +0.041905858
-0.000890887 +0.000825437 -0.000969962
+0.000561365 +0.000342087 +0.000347472
-0.001886104 +0.000927419 -0.001450909
+0.001812057 -0.004327444 +0.000979133
-0.009290724 -0.017522102 -0.014284555
-0.001182280 +0.001575674 -0.000606003
-0.000307429 +0.000886141 -0.000904995
-0.001009209 +0.001813277 +0.000422881
-0.001727257 -0.005154948 -0.006235093
-0.018923270 -0.017461247 -0.021110995
-0.000021195 -0.001502731 -0.000352732
+0.000441161 -0.000686026 -0.001966717
-0.000605452 -0.000414186 -0.001216714
+0.005081563 +0.004511127 +0.004877117
+0.026948542 +0.034680153 +0.041376163
-0.000920812 +0.000842951 -0.000972232
+0.000544438 +0.000380047 +0.000338018
-0.001871289 +0.000990617 -0.001458425
+0.001896172 -0.004261737 +0.001058059
-0.008277041 -0.016353952 -0.013333739
-0.001226938 +0.001588928 -0.000628085
-0.000342561 +0.000912732 -0.000928526
-0.001073332 +0.001832448 +0.000374231
-0.001846049 -0.005315171 -0.006360350
-0.018924802 -0.017502780 -0.021427315
-0.000029190 -0.001534669 -0.000318041
+0.000419044 -0.000702540 -0.001944874
-0.000634395 -0.000408618 -0.001215764
+0.005125540 +0.004416248 +0.004905318
+0.026207139 +0.033674076 +0.040863280
-0.000949998 +0.000860173 -0.000974396
+0.000527209 +0.000417017 +0.000328240
-0.001857138 +0.001051869 -0.001465555
+0.001973835 -0.004203063 +0.001131473
-0.007312583 -0.015244760 -0.012424613
-0.001270035 +0.001603021 -0.000651265
-0.000376616 +0.000938435 -0.000953256
-0.001136379 +0.001852074 +0.000329563
-0.001958203 -0.005467449 -0.006481969
-0.018903415 -0.017519338 -0.021716645
-0.000038009 -0.001565734 -0.000284099
+0.000397779 -0.000718951 -0.001924518
-0.000662671 -0.000403863 -0.001214353
+0.005168155 +0.004323653 +0.004931983
+0.025487546 +0.032698453 +0.040367126
-0.000978429 +0.000877074 -0.000976450
+0.000509725 +0.000452984 +0.000318185
-0.001843630 +0.001111184 -0.001472319
+0.002036954 -0.004143835 +0.001203653
-0.006396431 -0.014191441 -0.011557491
-0.001311008 +0.001615534 -0.000672835
-0.000407331 +0.000963808 -0.000975262
-0.001191905 +0.001865906 +0.000279969
-0.002064148 -0.005612390 -0.006600083
-0.018860667 -0.017513878 -0.021980846
-0.000047553 -0.001595984 -0.000250864
+0.000377239 -0.000735327 -0.001905579
-0.000690251 -0.000399827 -0.001212501
+0.005209409 +0.004233088 +0.004957141
+0.024788164 +0.031751518 +0.039886410
-0.001006186 +0.000893687 -0.000978376
+0.000491976 +0.000488025 +0.000307829
-0.001830697 +0.001168716 -0.001478744
+0.002103278 -0.004099425 +0.001255732
-0.005524635 -0.013187678 -0.010726976
-0.001353032 +0.001630203 -0.000693702
-0.000438080 +0.000987535 -0.000993815
-0.001251748 +0.001886263 +0.000242053
-0.002164155 -0.005750186 -0.006714726
-0.018798039 -0.017487228 -0.022220961
-0.000057634 -0.001625396 -0.000218345
+0.000357362 -0.000751669 -0.001887916
-0.000717097 -0.000396411 -0.001210262
+0.005249348 +0.004144650 +0.004980858
+0.024109035 +0.030832831 +0.039421129
-0.001033218 +0.000910004 -0.000980194
+0.000474030 +0.000522126 +0.000297242
-0.001818346 +0.001224465 -0.001484819
+0.002165321 -0.004051192 +0.001308494
-0.004696641 -0.012234379 -0.009934405
-0.001395233 +0.001643270 -0.000716499
-0.000469195 +0.001007914 -0.001011254
-0.001308096 +0.001902572 +0.000202320
-0.002258428 -0.005881092 -0.006825923
-0.018715961 -0.017440661 -0.022437378
-0.000068147 -0.001653991 -0.000186528
+0.000338108 -0.000767963 -0.001871495
-0.000743152 -0.000393556 -0.001207675
+0.005287957 +0.004058261 +0.005003188
+0.023449775 +0.029942083 +0.038970880
-0.001059553 +0.000926014 -0.000981914
+0.000455873 +0.000555299 +0.000286400
-0.001806532 +0.001278491 -0.001490567
