+0.008175207 +0.007210814 +0.000469451
+0.055086719 +0.074247059 +0.075500971
-0.002432556 +0.001001833 +0.000248302
+0.002342604 +0.001674502 +0.003696164
-0.002633761 -0.000242279 +0.000403720
-0.005853519 -0.008407253 +0.000793617
-0.031181442 -0.044915799 -0.035704917
+0.002148275 +0.002605239 -0.001661626
+0.001594138 -0.000648910 -0.001292758
+0.002074126 +0.003609821 +0.002160815
-0.002180120 -0.005864801 -0.007044621
-0.028830119 -0.027344945 -0.030062823
-0.001296616 -0.000767434 -0.001563536
-0.000531344 -0.000518808 -0.002038822
+0.002713761 -0.003272580 -0.002366937
+0.008164343 +0.007036595 +0.000510339
+0.053762356 +0.072673200 +0.074624796
-0.002444154 +0.001001533 +0.000242490
+0.002336101 +0.001738612 +0.003691260
-0.002530455 -0.000162131 +0.000407028
-0.005512906 -0.003612325 +0.001097298
-0.029135987 -0.041949693 -0.033707993
+0.002108695 +0.003094748 -0.001656660
+0.000385727 -0.003355803 +0.000565912
+0.003116589 +0.000863954 +0.000276085
-0.002295289 -0.005792122 -0.007123751
-0.031060407 -0.030114792 -0.032912387
-0.001238672 -0.000874484 -0.001267090
-0.000481515 -0.000423476 -0.002026007
+0.002590870 -0.003275562 -0.002354831
+0.008234183 +0.007225173 +0.000570433
+0.053466761 +0.072047895 +0.074584696
-0.002449414 +0.000877118 +0.000227185
+0.002558593 +0.001796182 +0.003944315
-0.002481462 -0.000257669 +0.000363427
-0.007223128 -0.005007699 +0.002012828
-0.025463744 -0.039817761 -0.029312638
+0.002101803 +0.003277793 -0.001464608
+0.001133595 -0.000980666 -0.001497723
+0.003278296 +0.000912543 +0.000099710
-0.002498499 -0.005969195 -0.007393008
-0.031166040 -0.030106462 -0.033323468
-0.001260833 -0.000965617 -0.001297818
-0.000471498 -0.000498031 -0.001901018
+0.002570726 -0.003266093 -0.002369401
+0.008233404 +0.006892554 +0.000637331
+0.052533863 +0.070707925 +0.074083247
-0.002425464 +0.000987612 +0.000188289
+0.002521352 +0.001848228 +0.003864158
-0.002576192 -0.000194773 +0.000391315
-0.009030251 -0.011126723 -0.003058458
-0.024011975 -0.038502896 -0.027297764
+0.005867610 +0.007088301 +0.001383762
+0.001000290 -0.000712932 -0.001233845
+0.001427133 +0.003019286 +0.001811453
-0.002764727 -0.006384786 -0.007779822
-0.030214392 -0.029440966 -0.033228607
-0.001222984 -0.000950185 -0.001274199
-0.000641650 -0.000563200 -0.001849609
+0.002602574 -0.003262607 -0.002353860
+0.008201656 +0.006557877 +0.000671032
+0.050756409 +0.068539728 +0.072950717
-0.002433379 +0.001062575 +0.000171096
+0.002415137 +0.001898434 +0.003731971
-0.002549898 -0.000078858 +0.000449194
-0.008124635 -0.006317897 -0.000027476
-0.023277011 -0.037208384 -0.025838209
+0.003493655 +0.004669746 +0.000350083
+0.001273168 -0.000713904 -0.001193292
+0.002930813 +0.000650318 -0.000186078
-0.002810848 -0.006310311 -0.007580124
-0.035157511 -0.034748618 -0.038420654
-0.001130475 -0.001046653 -0.000891944
-0.000461449 -0.000318044 -0.001959996
+0.002348758 -0.003276576 -0.002312260
+0.008260751 +0.006846078 +0.000751874
+0.052144118 +0.070474497 +0.073746235
-0.002574146 +0.000665565 +0.000064955
+0.002839649 +0.002068358 +0.004571891
-0.002057681 +0.000026055 +0.000205346
-0.006589987 -0.008071308 -0.001312920
-0.019459799 -0.032317560 -0.023802484
+0.003906763 +0.004660959 +0.000239339
+0.000966107 -0.000505313 -0.001200598
+0.001083327 +0.003255650 +0.001782308
-0.002943093 -0.006619162 -0.007794384
-0.035149759 -0.035137056 -0.039115410
-0.001164122 -0.001087769 -0.000882679
-0.000530608 -0.000339890 -0.001898530
+0.002318375 -0.003281582 -0.002331328
+0.008218416 +0.006582460 +0.000796848
+0.050967627 +0.069060461 +0.072993321
-0.002588051 +0.000706315 +0.000043354
+0.002817100 +0.002140048 +0.004547886
-0.002010806 +0.000091188 +0.000217619
-0.004469903 -0.003568468 +0.002008076
-0.017796252 -0.030108530 -0.021735343
+0.000397349 +0.002819416 -0.001041689
+0.001239998 -0.000531938 -0.001326303
+0.002096023 +0.000527624 -0.000404494
-0.003026659 -0.006606560 -0.007709776
-0.036410113 -0.036595703 -0.040813469
-0.001229505 -0.001139809 -0.000943666
-0.000394358 -0.000217209 -0.001899142
+0.002260506 -0.003362429 -0.002365010
+0.008225946 +0.006500513 +0.000851884
+0.051017521 +0.068704918 +0.072693948
-0.002494521 +0.000659307 -0.000030693
+0.002907265 +0.002190436 +0.004737365
-0.002052399 +0.000213688 +0.000195543
-0.003322864 -0.005645335 +0.000237134
-0.014964625 -0.028077043 -0.020946356
+0.000593020 +0.002554935 -0.001023346
+0.001170499 -0.000119237 -0.001247000
+0.000850954 +0.002737470 +0.001404923
-0.003197057 -0.006928637 -0.007939802
-0.036292083 -0.036982582 -0.041419171
-0.001237331 -0.001175093 -0.000907317
-0.000442001 -0.000233956 -0.001812864
+0.002230633 -0.003359422 -0.002381093
+0.008197170 +0.006316648 +0.000911650
+0.049864580 +0.067461840 +0.071970926
-0.002526502 +0.000650645 -0.000025842
+0.002886307 +0.002254085 +0.004708400
-0.001963668 +0.000253972 +0.000162699
-0.004495881 -0.009288374 -0.000366864
-0.014566741 -0.024571980 -0.020048082
+0.002703328 +0.005594476 +0.000255413
+0.001181206 -0.000486506 -0.001313582
+0.000784329 +0.002334673 +0.001365612
-0.003341650 -0.007069129 -0.008113235
-0.036487470 -0.037003444 -0.042003689
-0.001235822 -0.001200621 -0.000868086
-0.000467277 -0.000258349 -0.001772957
+0.002216257 -0.003354120 -0.002380632
+0.008238368 +0.006215473 +0.000986724
+0.049122557 +0.066369334 +0.071511255
-0.002540880 +0.000663531 -0.000032961
+0.002889024 +0.002281719 +0.004700567
-0.001940371 +0.000287584 +0.000150284
-0.004150915 -0.003096241 +0.002289566
-0.012693319 -0.024903745 -0.018163800
+0.000377669 +0.002896580 -0.000829316
+0.001199837 -0.000320646 -0.001496377
+0.001974939 +0.000163654 -0.000709146
-0.003376628 -0.007068985 -0.008161345
-0.038823998 -0.039510900 -0.044241885
-0.001229004 -0.001374264 -0.000711536
-0.000386230 -0.000158000 -0.001729387
+0.002016606 -0.003395406 -0.002399043
+0.008341336 +0.006376178 +0.001004903
+0.049591073 +0.066872002 +0.071929095
-0.002578235 +0.000599438 -0.000052794
+0.003102645 +0.002339895 +0.004952284
-0.001987754 +0.000236680 +0.000116718
-0.004893168 -0.007845874 -0.000814112
-0.010600445 -0.021994154 -0.015513314
+0.003020828 +0.005375162 +0.000208384
+0.000759657 -0.000456749 -0.001488857
+0.000234687 +0.002715737 +0.001302546
-0.003493594 -0.007312376 -0.008531391
-0.038949297 -0.039718098 -0.044668518
-0.001174229 -0.001409193 -0.000478820
-0.000574094 -0.000267101 -0.001687944
+0.001965744 -0.003350595 -0.002299548
+0.008468851 +0.006348713 +0.001032904
+0.048183280 +0.065642250 +0.071659081
-0.002732190 +0.000649613 +0.000063590
+0.003151683 +0.002377689 +0.004817517
-0.001945236 +0.000094576 +0.000068012
-0.003626804 -0.003137094 +0.002089940
-0.010621019 -0.020239299 -0.013194640
+0.000753399 +0.002909824 -0.001048154
+0.000882588 -0.000693985 -0.001369141
+0.001420616 +0.000687027 -0.000405657
-0.003549004 -0.007426637 -0.008610510
-0.039558437 -0.039719787 -0.045445963
-0.001199325 -0.001530669 -0.000622775
-0.000511693 -0.000379721 -0.001601016
+0.001924523 -0.003295066 -0.002331703
+0.008636167 +0.006228804 +0.001336434
+0.047554583 +0.065059574 +0.071363910
-0.002899757 +0.000790368 +0.000052560
+0.003045933 +0.002320936 +0.004631187
-0.001945461 +0.000303224 -0.000033429
-0.002138809 -0.005959637 +0.000097654
-0.009868970 -0.018736872 -0.012181657
+0.000877834 +0.002663651 -0.001349017
+0.000834628 -0.000200955 -0.001443567
-0.000269772 +0.003600009 +0.001975956
-0.003682691 -0.007658754 -0.008811998
-0.039299303 -0.039779745 -0.045743920
-0.001200221 -0.001563305 -0.000594410
-0.000573269 -0.000407061 -0.001581093
+0.001904061 -0.003305385 -0.002317384
+0.008635436 +0.006057475 +0.001310361
+0.046571741 +0.063862380 +0.070742341
-0.002901027 +0.000800445 +0.000055514
+0.003020133 +0.002369572 +0.004607340
-0.001911943 +0.000356447 -0.000014498
-0.001873754 -0.001191287 +0.000243468
-0.009006325 -0.016908973 -0.011094060
+0.000853938 +0.003083229 -0.001364156
-0.000349936 -0.002932087 +0.000436692
+0.000786796 +0.000861891 +0.000153274
-0.003740476 -0.007845389 -0.008971021
-0.038358934 -0.038654982 -0.045355271
-0.001247967 -0.001511375 -0.000634977
-0.000644463 -0.000480721 -0.001543744
+0.001954155 -0.003312162 -0.002316611
+0.008649449 +0.005797883 +0.001369223
+0.045480487 +0.062338877 +0.070038091
-0.002897030 +0.000879275 +0.000063573
+0.002912384 +0.002388507 +0.004454132
-0.001918148 +0.000423741 -0.000009912
-0.003097636 -0.003497703 +0.001972946
-0.008528668 -0.016937072 -0.010373229
+0.000504278 +0.002963712 -0.001045606
+0.000923092 -0.000326489 -0.001618604
+0.001004489 +0.000939626 -0.000217916
-0.003874375 -0.007945173 -0.009118348
-0.038074818 -0.038632129 -0.045538201
-0.001247674 -0.001505222 -0.000565505
-0.000679824 -0.000458771 -0.001523681
+0.001965912 -0.003337515 -0.002319721
+0.008594336 +0.005714967 +0.001318641
+0.044903045 +0.061335558 +0.069600204
-0.002840590 +0.000821280 +0.000059948
+0.002947990 +0.002460575 +0.004518778
-0.001884131 +0.000375612 -0.000001992
-0.003995407 -0.008144637 -0.001244263
-0.007060498 -0.016523783 -0.009207280
+0.002844525 +0.005594531 +0.000042489
+0.000445497 -0.000429373 -0.001413392
-0.000383220 +0.003112226 +0.001447617
-0.003991136 -0.008078544 -0.009397710
-0.037764505 -0.038831284 -0.045760686
-0.001211924 -0.001514097 -0.000402933
-0.000790775 -0.000423886 -0.001515307
+0.001900186 -0.003406824 -0.002294664
+0.008474292 +0.005490454 +0.001285934
+0.044133625 +0.060280694 +0.069141809
-0.002785875 +0.000837130 +0.000029450
+0.003012671 +0.002563232 +0.004581539
-0.001923967 +0.000325944 +0.000056055
-0.001725468 -0.004901618 -0.001183409
-0.006635177 -0.015331963 -0.007713590
+0.000656386 +0.002880310 -0.001247124
+0.000859645 -0.000894051 -0.001576013
-0.000415220 +0.002718272 +0.002776343
-0.004097042 -0.008280971 -0.009616751
-0.036702812 -0.037082939 -0.045088163
-0.001267305 -0.001467546 -0.000545056
-0.000844076 -0.000602944 -0.001423621
+0.001976972 -0.003380632 -0.002225874
+0.008644430 +0.005394380 +0.001550787
+0.042731107 +0.058658242 +0.068445298
-0.002904404 +0.001078313 +0.000158447
+0.002788848 +0.002317304 +0.004074786
-0.001903519 +0.000548719 +0.000033450
-0.000256956 -0.007652125 -0.003371827
-0.006884237 -0.015535454 -0.007316258
+0.000642638 +0.002692996 -0.001637969
+0.000656257 -0.000488310 -0.001378524
-0.001939116 +0.005562190 +0.005017916
-0.004138986 -0.008247221 -0.009648176
-0.038511889 -0.039917704 -0.047301170
-0.001223730 -0.001589117 -0.000255265
-0.000784365 -0.000428334 -0.001477057
+0.001805487 -0.003440705 -0.002263116
+0.008487644 +0.005333353 +0.001238969
+0.043210278 +0.059259322 +0.068676904
-0.002831763 +0.000796563 +0.000049865
+0.003166107 +0.002658483 +0.004772505
-0.001835094 +0.000392140 -0.000002950
+0.000251366 -0.005817761 -0.002774433
-0.004367463 -0.012974378 -0.005556115
+0.000485399 +0.003154342 -0.000989289
+0.000830013 -0.001128495 -0.001767550
-0.002427072 +0.004049965 +0.004329999
-0.004221585 -0.008455422 -0.009807908
-0.037694127 -0.038944524 -0.046902652
-0.001230814 -0.001543811 -0.000287113
-0.000862901 -0.000469576 -0.001452632
+0.001846147 -0.003462585 -0.002260860
+0.008645985 +0.005394802 +0.001355077
+0.042196944 +0.057856258 +0.067998032
-0.002871597 +0.000806368 +0.000053562
+0.002979966 +0.002628353 +0.004555867
-0.001796518 +0.000465900 -0.000009469
+0.000338452 -0.005942436 -0.002633156
-0.004123149 -0.012698337 -0.005334451
+0.000368015 +0.003301284 -0.001074348
+0.000780606 -0.001064306 -0.001760406
-0.002520242 +0.004152266 +0.004296095
-0.004487130 -0.008242083 -0.010308473
-0.037642440 -0.037481154 -0.046302333
-0.001243075 -0.001408396 -0.000185885
-0.000960014 -0.000720746 -0.001051719
+0.001876067 -0.003455432 -0.001984768
+0.007620521 +0.004874851 +0.002787502
+0.042582892 +0.057651687 +0.067099970
-0.003203885 +0.001430891 -0.000039532
+0.002908458 +0.002337916 +0.003990523
-0.001614924 +0.000489791 +0.000166787
-0.000214457 -0.011162613 -0.006474493
-0.004062441 -0.012788571 -0.004081828
+0.002554093 +0.005752420 +0.000019698
+0.000449654 -0.000922078 -0.001665980
-0.004168242 +0.006759836 +0.006515162
-0.004492331 -0.008362150 -0.010431911
-0.037354490 -0.037405147 -0.046510123
-0.001232319 -0.001406954 -0.000141676
-0.001069613 -0.000693578 -0.001076191
+0.001839682 -0.003493187 -0.001970771
+0.007619077 +0.004774261 +0.002801226
+0.041823339 +0.056688096 +0.066601828
-0.003216995 +0.001442531 -0.000048104
+0.002900280 +0.002374957 +0.003983764
-0.001588833 +0.000528620 +0.000172429
+0.000692716 -0.006164888 -0.003054562
-0.003804834 -0.011561060 -0.003209500
+0.000237392 +0.003171104 -0.001121563
+0.000741695 -0.000967712 -0.001703658
-0.002636120 +0.004316252 +0.004436835
-0.004472365 -0.008173323 -0.010363256
-0.039220307 -0.040020861 -0.048470437
-0.001178917 -0.001533724 +0.000148114
-0.000970474 -0.000492298 -0.001135597
+0.001660435 -0.003549500 -0.001998769
+0.007438028 +0.004752716 +0.002497026
+0.042713583 +0.057820680 +0.067120783
-0.003136924 +0.001174715 -0.000141354
+0.003284560 +0.002706600 +0.004681862
-0.001539526 +0.000318549 +0.000145461
+0.003297315 -0.008875419 -0.004585600
-0.003797110 -0.008654144 -0.002931334
+0.000956813 +0.002684067 -0.001084229
+0.000440176 -0.001051208 -0.001366311
-0.003804265 +0.006529488 +0.006647087
-0.004518883 -0.008381227 -0.010485616
-0.038302990 -0.039173091 -0.048150866
-0.001219932 -0.001519280 +0.000060786
-0.001014679 -0.000565046 -0.001095704
+0.001694732 -0.003551293 -0.002002216
+0.007479975 +0.004560783 +0.002535487
+0.041668465 +0.056473358 +0.066373933
-0.003176843 +0.001235276 -0.000131121
+0.003163819 +0.002711086 +0.004538430
-0.001519876 +0.000447391 +0.000141034
+0.002204642 -0.006465231 -0.002269616
-0.003674416 -0.007835592 -0.002650932
+0.000610675 +0.002866956 -0.000888903
+0.000611560 -0.001080018 -0.001665706
-0.002480620 +0.003917211 +0.004393417
-0.004572267 -0.008565948 -0.010621034
-0.037467566 -0.038068500 -0.047725197
-0.001210638 -0.001474174 +0.000029609
-0.001083344 -0.000644063 -0.001089174
+0.001742558 -0.003529126 -0.002022149
+0.007539293 +0.004421721 +0.002585260
+0.040751280 +0.055255568 +0.065777167
-0.003208644 +0.001267807 -0.000116071
+0.003065901 +0.002718669 +0.004408196
-0.001493907 +0.000514911 +0.000110084
+0.005279897 -0.007836810 -0.005858988
-0.003673844 -0.008203932 -0.002213987
+0.000741194 +0.002895444 -0.001499041
-0.001430295 -0.002009728 +0.000169354
-0.003867104 +0.006805295 +0.006433480
-0.004671718 -0.008920396 -0.010960592
-0.035798799 -0.036088080 -0.046591574
-0.001220733 -0.001400370 -0.000057165
-0.001240958 -0.000841101 -0.001014578
+0.001861493 -0.003491764 -0.001965020
+0.007734396 +0.004368732 +0.002748492
+0.039218728 +0.053429347 +0.064947294
-0.003316299 +0.001440766 +0.000014022
+0.002776361 +0.002489995 +0.003897280
-0.001438863 +0.000715138 +0.000113726
+0.003968662 -0.011894967 -0.006607121
-0.005249056 -0.007154629 -0.002242338
+0.002653238 +0.005852242 -0.000314299
-0.001380036 -0.002353106 +0.000254308
-0.003890818 +0.006655068 +0.006496210
-0.004696147 -0.009001035 -0.011072393
-0.035606663 -0.035766530 -0.046684284
-0.001222990 -0.001400864 -0.000036847
-0.001281699 -0.000843460 -0.001005842
+0.001857811 -0.003515541 -0.001966465
+0.007770679 +0.004316751 +0.002769572
+0.038718535 +0.052675410 +0.064633091
-0.003326535 +0.001448593 +0.000007743
+0.002757824 +0.002502650 +0.003885392
-0.001420987 +0.000751091 +0.000118472
+0.004186274 -0.005603867 -0.003623584
-0.004180057 -0.007989671 -0.001006726
+0.000322135 +0.003211831 -0.001487307
-0.001367071 -0.002262239 +0.000057746
-0.002612022 +0.004358410 +0.004216491
-0.004698693 -0.009054626 -0.011276759
-0.034340571 -0.034406992 -0.045638220
-0.001172476 -0.001327807 +0.000038841
-0.001420535 -0.000980021 -0.001032035
+0.001915460 -0.003472294 -0.001947466
+0.007796552 +0.004150103 +0.002794177
+0.037466977 +0.051137173 +0.064024715
-0.003308113 +0.001642284 +0.000035506
+0.002733081 +0.002589131 +0.003601676
-0.001555136 +0.000656230 +0.000157063
+0.003522171 -0.010771048 -0.007109164
-0.004267874 -0.008671983 -0.000395200
+0.002410520 +0.005822047 -0.000511477
-0.001726572 -0.002250894 +0.000221529
-0.004296383 +0.006935608 +0.006338296
-0.006925798 -0.010425063 -0.013435761
-0.032882560 -0.034434431 -0.046304244
-0.000763831 -0.001180481 +0.000157579
-0.001406523 +0.001726208 +0.001235334
+0.001779792 -0.005140068 -0.001419872
+0.007751281 +0.004003593 +0.002973421
+0.036994412 +0.050408303 +0.063643067
-0.003298005 +0.001652447 +0.000132373
+0.002634556 +0.002603751 +0.003418386
-0.001464139 +0.000706982 +0.000064015
+0.004346473 -0.005493328 -0.003885251
-0.003454517 -0.007454310 -0.000153227
+0.000176814 +0.003211086 -0.001567346
-0.001511333 -0.002403957 +0.000241952
-0.002672655 +0.004379187 +0.004205437
-0.006987583 -0.010548373 -0.013598595
-0.031257559 -0.032715689 -0.045170201
-0.000755973 -0.001101524 +0.000075587
-0.001550660 +0.001699548 +0.001269204
+0.001865487 -0.005201599 -0.001459368
+0.007863074 +0.003923681 +0.003149093
+0.035793400 +0.048608363 +0.062851174
-0.003269638 +0.001797070 +0.000101935
+0.002414152 +0.002638816 +0.003032681
-0.001596155 +0.000717484 +0.000102836
+0.004401790 -0.007172772 +0.002937199
-0.004228500 -0.007855463 -0.000958949
-0.001297633 +0.001710893 -0.003699352
-0.000170058 -0.000273139 -0.002658210
-0.002349222 +0.004978207 +0.003288680
-0.004877863 -0.009560383 -0.011827670
-0.031543308 -0.031731234 -0.044158443
-0.001128803 -0.001201917 +0.000024854
-0.001704987 -0.001084107 -0.000998996
+0.002021931 -0.003507375 -0.001958987
+0.008013611 +0.003934437 +0.002909007
+0.034734149 +0.047448417 +0.062332297
-0.003315781 +0.001793011 +0.000028708
+0.002415864 +0.002679132 +0.003098135
-0.001678289 +0.000719154 +0.000206825
+0.004619329 -0.002513965 +0.003254200
-0.005428340 -0.008185605 -0.000116157
-0.001444931 +0.002222581 -0.003881116
-0.001344989 -0.003117478 -0.000692374
-0.001257345 +0.002233650 +0.001409460
-0.007128452 -0.010747267 -0.013853334
-0.030171595 -0.031751597 -0.044812709
-0.000719962 -0.001048088 +0.000148876
-0.001713811 +0.001610218 +0.001248040
+0.001892041 -0.005239847 -0.001445459
+0.007933625 +0.003750799 +0.003135620
+0.034527014 +0.046988450 +0.062133500
-0.003267134 +0.001865797 +0.000113217
+0.002343198 +0.002695190 +0.002900941
-0.001639632 +0.000747401 +0.000123802
+0.003236142 -0.004697625 +0.005005117
-0.004268641 -0.007589683 +0.000501911
-0.001501616 +0.002002012 -0.003617447
-0.000094541 -0.000704674 -0.002733196
-0.001013160 +0.002348576 +0.001102321
-0.007078293 -0.011033374 -0.014068113
-0.028641986 -0.029676694 -0.043729110
-0.000731030 -0.000949853 -0.000006561
-0.001856607 +0.001423843 +0.001285440
+0.002043258 -0.005189389 -0.001404829
+0.008129840 +0.003439359 +0.003195188
+0.033266439 +0.045471997 +0.061631451
-0.003290026 +0.002059973 +0.000192894
+0.002162110 +0.002700687 +0.002489586
-0.001730637 +0.000849841 +0.000121845
+0.002076440 -0.010311418 +0.001074615
-0.005223182 -0.008085002 +0.000394038
-0.000296999 +0.003261534 -0.002773700
-0.000780370 -0.000250202 -0.002427060
-0.002574340 +0.005919764 +0.004059940
-0.007188432 -0.011087111 -0.014086098
-0.028409601 -0.029578649 -0.043900670
-0.000771378 -0.000980353 -0.000015087
-0.001826734 +0.001395691 +0.001305657
+0.002043303 -0.005226755 -0.001410717
+0.008154028 +0.003343910 +0.003223635
+0.032777740 +0.044915096 +0.061360032
-0.003317220 +0.002054186 +0.000199929
+0.002145730 +0.002744555 +0.002463666
-0.001726604 +0.000867468 +0.000089457
+0.003142854 -0.005325168 +0.004358541
-0.005277739 -0.007522244 +0.000923783
-0.002714753 +0.000700393 -0.003915428
-0.000466762 -0.000307755 -0.002473782
-0.001089108 +0.003484513 +0.002044752
-0.007204618 -0.011138994 -0.014165082
-0.028248117 -0.029403303 -0.043900510
-0.000778876 -0.000937141 +0.000017777
-0.001873944 +0.001338645 +0.001246918
+0.002058193 -0.005234828 -0.001357177
+0.008176893 +0.003253805 +0.003193517
+0.032438331 +0.044483308 +0.061205267
-0.003309343 +0.002074468 +0.000188550
+0.002132748 +0.002780364 +0.002458809
-0.001754499 +0.000871243 +0.000080915
-0.002093848 -0.007378769 +0.000162550
-0.003497333 -0.007803097 +0.001760441
+0.000430000 +0.002438185 -0.002587278
-0.000652728 -0.000858395 -0.000386359
-0.000528278 +0.005195447 +0.002365959
-0.007191931 -0.011121520 -0.014221418
-0.027911456 -0.029173240 -0.043891554
-0.000723043 -0.000938891 +0.000027963
-0.001958525 +0.001342968 +0.001169124
+0.002014829 -0.005301813 -0.001361908
+0.008173751 +0.003080004 +0.003182780
+0.031993044 +0.043873785 +0.060969773
-0.003297710 +0.002144527 +0.000184611
+0.002114596 +0.002801572 +0.002413754
-0.001811154 +0.000930274 +0.000102380
-0.003047902 -0.005047054 +0.001875231
-0.003651980 -0.007277813 +0.002579800
+0.000240325 +0.002755874 -0.002301016
-0.000547955 -0.001093463 -0.000590670
+0.000724420 +0.002640038 +0.000363110
-0.007258000 -0.011180922 -0.014207221
-0.028469779 -0.029796372 -0.044667202
-0.000840337 -0.000995832 +0.000051939
-0.001823713 +0.001308062 +0.001213959
+0.002010877 -0.005313717 -0.001351513
+0.008182450 +0.003178611 +0.003231601
+0.032139453 +0.043986209 +0.060916952
-0.003342317 +0.001999662 +0.000164316
+0.002124602 +0.002780637 +0.002595559
-0.001687035 +0.000962156 +0.000039171
-0.002083065 -0.007280126 +0.000004423
-0.002351874 -0.006524317 +0.002871569
+0.000488880 +0.002484884 -0.002490654
-0.000707434 -0.000897589 -0.000360756
-0.000571219 +0.005131559 +0.002339803
-0.007310387 -0.011162098 -0.014263201
-0.028362023 -0.029745145 -0.044771033
-0.000809765 -0.001005516 +0.000067173
-0.001845762 +0.001321013 +0.001206756
+0.001984341 -0.005372923 -0.001359082
+0.008196848 +0.003165224 +0.003249791
+0.031911596 +0.043627030 +0.060762890
-0.003349242 +0.002005279 +0.000167001
+0.002119225 +0.002781749 +0.002585202
-0.001688942 +0.000996313 +0.000032920
-0.003959894 -0.009710168 -0.001217802
-0.001938235 -0.006090449 +0.003453162
+0.002520279 +0.005301285 -0.001175430
-0.000959425 -0.001100994 -0.000517439
-0.000824530 +0.004926515 +0.002186856
-0.007421371 -0.011076820 -0.014186250
-0.028981133 -0.030914596 -0.045721506
-0.000858398 -0.001072916 +0.000173709
-0.001741440 +0.001433338 +0.001232953
+0.001878761 -0.005426887 -0.001410596
+0.008048014 +0.003387202 +0.003239443
+0.032182084 +0.043808476 +0.060575610
-0.003362517 +0.001815102 +0.000130089
+0.002218964 +0.002797371 +0.002873189
-0.001474878 +0.000977718 -0.000001430
-0.003196718 -0.004717240 +0.002148282
-0.000494185 -0.004739181 +0.003433851
+0.000417410 +0.002661438 -0.002066356
-0.000660507 -0.001230835 -0.000525692
+0.000563047 +0.002545880 +0.000186127
-0.007436593 -0.011089103 -0.014229245
-0.028878504 -0.030922421 -0.045806765
-0.000909245 -0.001011133 +0.000266404
-0.001770607 +0.001431954 +0.001181633
+0.001882912 -0.005465843 -0.001369627
+0.008005148 +0.003373867 +0.003175246
+0.031985890 +0.043501368 +0.060411679
-0.003326305 +0.001776049 +0.000133053
+0.002266842 +0.002847193 +0.002938742
-0.001471771 +0.000913653 +0.000006810
-0.002324871 -0.006818657 +0.000187219
+0.000195058 -0.004951417 +0.003848676
+0.000635170 +0.002480909 -0.002280782
-0.000876063 -0.001116967 -0.000157192
-0.000522497 +0.004888518 +0.001962242
-0.007495717 -0.011127693 -0.014288762
-0.028606416 -0.030577573 -0.045784312
-0.000859572 -0.001051188 +0.000209487
-0.001790130 +0.001385246 +0.001189083
+0.001886457 -0.005484870 -0.001371497
+0.008065705 +0.003237777 +0.003291027
+0.031566629 +0.043006937 +0.060204406
-0.003371600 +0.001844668 +0.000128225
+0.002199404 +0.002854644 +0.002829164
-0.001501155 +0.000995308 -0.000041963
-0.003159392 -0.004714967 +0.002032774
-0.000077826 -0.004156031 +0.004170779
+0.000359337 +0.002723303 -0.002039938
-0.000689759 -0.001248263 -0.000477521
+0.000490075 +0.002554302 +0.000184928
-0.007505474 -0.011144131 -0.014357002
-0.028391990 -0.030577113 -0.045937562
-0.000891766 -0.001023615 +0.000285611
-0.001809700 +0.001424710 +0.001186807
+0.001870417 -0.005528172 -0.001366870
+0.008043372 +0.003231912 +0.003224438
+0.031280302 +0.042585965 +0.060002909
-0.003356559 +0.001781177 +0.000126523
+0.002232199 +0.002897615 +0.002909288
-0.001484573 +0.000966208 -0.000027872
-0.002799291 -0.006314055 -0.000946336
+0.001473651 -0.005232079 +0.005882278
+0.000350916 +0.002797690 -0.002350484
-0.001202286 -0.000943443 -0.000252017
-0.000545354 +0.004867202 +0.002151180
-0.007548252 -0.011149809 -0.014365671
-0.028137759 -0.030337897 -0.045928562
-0.000920668 -0.001011450 +0.000292938
-0.001820646 +0.001367390 +0.001141269
+0.001877183 -0.005558634 -0.001337323
+0.008053601 +0.003157215 +0.003236189
+0.030927475 +0.042164154 +0.059784039
-0.003367459 +0.001797193 +0.000131426
+0.002219098 +0.002933706 +0.002886704
-0.001496260 +0.000979328 -0.000060554
-0.003828878 -0.002870157 -0.002639392
+0.001276185 -0.004537673 +0.005958206
+0.001807157 +0.004593339 -0.000491277
-0.002066644 -0.003460762 +0.001815889
+0.000246529 +0.001832510 +0.000181241
-0.007489064 -0.011252390 -0.014332714
-0.027899796 -0.029940094 -0.045916122
-0.000963372 -0.001051967 +0.000188334
-0.001788174 +0.001331844 +0.001176588
+0.001906988 -0.005559991 -0.001383299
+0.008131529 +0.003060425 +0.003289828
+0.030637674 +0.041736211 +0.059612718
-0.003389030 +0.001827985 +0.000134977
+0.002130828 +0.002923505 +0.002802435
-0.001493606 +0.001064427 -0.000084044
-0.005096951 -0.005464303 -0.000709097
+0.001475137 -0.004349309 +0.005939046
+0.001517983 +0.004430125 -0.000218339
-0.000707533 -0.000726524 -0.000386701
+0.000318218 +0.002133535 -0.000022032
-0.007521213 -0.011216335 -0.014336305
-0.028208784 -0.030293626 -0.046369287
-0.001003375 -0.001133018 +0.000156609
-0.001697406 +0.001364097 +0.001188390
+0.001868282 -0.005630627 -0.001404333
+0.008137889 +0.003097994 +0.003302590
+0.030802909 +0.041788388 +0.059608288
-0.003407018 +0.001751454 +0.000121284
+0.002108308 +0.002874134 +0.002902828
-0.001430557 +0.001166069 -0.000085993
-0.005850926 -0.010152288 -0.003890316
+0.002528711 -0.003809046 +0.006362231
+0.003727289 +0.006983440 +0.000846335
-0.001113146 -0.000713066 -0.000382618
-0.001186838 +0.004407513 +0.001870816
-0.007548648 -0.011270650 -0.014366295
-0.027933157 -0.030078452 -0.046316413
-0.001049173 -0.001115567 +0.000156333
-0.001687826 +0.001295812 +0.001178694
+0.001887957 -0.005636063 -0.001382493
+0.008157338 +0.003026098 +0.003293259
+0.030415958 +0.041393578 +0.059416274
-0.003410483 +0.001772889 +0.000122519
+0.002093858 +0.002906135 +0.002876714
-0.001459727 +0.001175382 -0.000093689
-0.005056263 -0.005365525 -0.000791064
+0.002135762 -0.003313864 +0.006485198
+0.001528650 +0.004475270 -0.000147893
-0.000778191 -0.000728832 -0.000387816
+0.000242643 +0.002118374 -0.000053614
-0.007579719 -0.011245271 -0.014399651
-0.027763663 -0.029878059 -0.046322305
-0.001032853 -0.001090425 +0.000183544
-0.001738588 +0.001303165 +0.001143781
+0.001878781 -0.005696443 -0.001360794
+0.008154295 +0.002988437 +0.003339260
+0.030231027 +0.041093374 +0.059276573
-0.003425732 +0.001778125 +0.000122964
+0.002089869 +0.002925767 +0.002863658
-0.001447374 +0.001179207 -0.000129137
-0.003961699 -0.007708103 -0.002810536
+0.002441263 -0.003458044 +0.006712224
+0.001661251 +0.004341852 -0.000434958
-0.000940166 -0.000528130 -0.000176869
-0.001044564 +0.004650129 +0.001982110
-0.007606162 -0.011297542 -0.014443359
-0.027464757 -0.029702646 -0.046281707
-0.001043724 -0.001081861 +0.000183171
-0.001757363 +0.001281592 +0.001143222
+0.001893560 -0.005703536 -0.001354374
+0.008165299 +0.002933613 +0.003352332
+0.029923755 +0.040716001 +0.059077979
-0.003436383 +0.001799693 +0.000112515
+0.002075057 +0.002941496 +0.002852363
-0.001445110 +0.001202759 -0.000124844
-0.000628325 -0.000893044 -0.001517485
+0.002629932 -0.002792892 +0.007087495
-0.001614953 +0.002685786 -0.001879846
-0.001918518 -0.003145058 +0.001851112
-0.000217524 +0.001758694 +0.000134344
-0.007726870 -0.011158468 -0.014444315
-0.027051835 -0.029530872 -0.046009671
-0.001019756 -0.001081818 +0.000237558
-0.001767679 +0.001251089 +0.001084598
+0.001898329 -0.005699096 -0.001462417
+0.008123992 +0.003041456 +0.003367036
+0.029718009 +0.040137612 +0.058837587
-0.003297891 +0.001901123 +0.000006405
+0.002056013 +0.002953007 +0.002797497
-0.001652455 +0.001154768 -0.000014305
-0.002278881 -0.003019226 +0.000139099
+0.003457872 -0.003676680 +0.007732496
-0.001615098 +0.002521916 -0.001517770
-0.000613442 -0.000842375 -0.000033174
+0.000294618 +0.001631221 -0.000286734
-0.007774193 -0.011279746 -0.014547770
-0.026417575 -0.028825336 -0.045626976
-0.000991954 -0.001017526 +0.000226310
-0.001849555 +0.001199290 +0.001084243
+0.001958822 -0.005690049 -0.001454657
+0.008163612 +0.002953384 +0.003349582
+0.029241782 +0.039544030 +0.058621981
-0.003306668 +0.001942097 +0.000016634
+0.001987047 +0.002959005 +0.002706389
-0.001648007 +0.001190259 +0.000010509
-0.002997840 -0.007888323 -0.003107625
+0.003437955 -0.004342301 +0.008015471
+0.000433923 +0.005245516 -0.000512798
-0.001069210 -0.000879631 +0.000097041
-0.001234465 +0.004018824 +0.001601528
-0.007845601 -0.011266068 -0.014580005
-0.026157940 -0.028630063 -0.045605563
-0.001003029 -0.001020844 +0.000213683
-0.001829991 +0.001154348 +0.001084517
+0.001969691 -0.005724884 -0.001449638
+0.008183709 +0.002911267 +0.003356121
+0.028991743 +0.039196410 +0.058450397
-0.003318536 +0.001954174 +0.000026287
+0.001970687 +0.002970424 +0.002684007
-0.001653651 +0.001229059 -0.000003810
-0.002157483 -0.003024780 +0.000067484
+0.003085488 -0.004135944 +0.007958443
-0.001829466 +0.002693362 -0.001616244
-0.000724593 -0.000924751 +0.000070884
+0.000212778 +0.001729273 -0.000262424
-0.007821362 -0.011290682 -0.014585421
-0.026033673 -0.028444462 -0.045574248
-0.001028739 -0.000982016 +0.000237216
-0.001873832 +0.001137705 +0.001039277
+0.001974868 -0.005744041 -0.001416827
+0.008195005 +0.002862227 +0.003334681
+0.028782981 +0.038966244 +0.058376864
-0.003311490 +0.001964260 +0.000034098
+0.001971246 +0.002989671 +0.002670558
-0.001678241 +0.001226692 -0.000007895
-0.001078635 -0.005369503 -0.001912931
+0.003340239 -0.004228730 +0.008131946
-0.001707420 +0.002524731 -0.001883832
-0.000874740 -0.000710685 +0.000306235
-0.001072991 +0.004245006 +0.001737529
+0.006352438 +0.005094442 -0.001211123
+0.008264357 +0.016152682 +0.014354840
-0.001513823 +0.000331234 -0.002029176
+0.001578761 +0.000593674 -0.004436188
+0.002831724 -0.003917080 -0.001521211
+0.007933120 +0.008715906 -0.002570050
+0.076810563 +0.102429186 +0.085237420
-0.003359022 +0.001696337 +0.001541063
+0.002382225 +0.000630736 +0.004304028
-0.002994008 -0.001059789 +0.000612129
-0.009404000 -0.015779477 -0.011228940
-0.093955736 -0.117741846 -0.092160652
+0.001841993 +0.003481452 -0.000152361
+0.003006816 -0.000988886 -0.001682460
+0.000120107 +0.005596386 +0.009095194
+0.005473885 +0.004075998 -0.001446619
+0.003305417 +0.010182100 +0.009359638
-0.001490591 +0.000267291 -0.002033928
+0.001353207 +0.000509045 -0.004230631
+0.002844085 -0.003838105 -0.001599642
+0.007876553 +0.008428224 -0.002530573
+0.074956202 +0.100264267 +0.084031647
-0.003362991 +0.001723333 +0.001520087
+0.002410159 +0.000722338 +0.004305017
-0.002923645 -0.000965143 +0.000628675
-0.007991408 -0.010642012 -0.007234358
-0.087128890 -0.108827919 -0.086388354
-0.000389570 +0.000993597 -0.001225770
+0.003274901 -0.000953462 -0.001753376
+0.001651714 +0.003119034 +0.006837938
+0.004894492 +0.003835418 -0.001583384
-0.001199961 +0.005846259 +0.005389040
-0.001566851 +0.000155832 -0.002326903
+0.001517477 +0.000604792 -0.003996402
+0.002841214 -0.003961506 -0.001668662
+0.007849122 +0.008019228 -0.001827762
+0.074213004 +0.099260439 +0.082937662
-0.003289311 +0.001941980 +0.001373472
+0.002331453 +0.000486668 +0.004095135
-0.002893174 -0.000524827 +0.000598591
-0.004439605 -0.011955694 -0.010619879
-0.081211898 -0.102656362 -0.082250861
+0.000257731 +0.000858699 -0.001581808
+0.001299773 -0.001722353 -0.000122980
+0.000276617 +0.005939277 +0.008922280
+0.004221758 +0.002799079 -0.001826383
-0.007197972 -0.001418557 -0.000928650
-0.001385755 -0.000034704 -0.001808690
+0.001242938 +0.000484962 -0.003888453
+0.002714339 -0.003685406 -0.001713479
+0.008003507 +0.008236683 -0.002306195
+0.073508635 +0.098480342 +0.083339130
-0.003425724 +0.001694182 +0.001439730
+0.002780504 +0.000924943 +0.004676166
-0.002961286 -0.000977862 +0.000549945
-0.003695321 -0.006639757 -0.009406719
-0.075226071 -0.093636193 -0.075271798
+0.000525045 +0.001322543 -0.001576555
+0.000064358 -0.004798937 +0.001773668
+0.001206599 +0.003144995 +0.006759943
+0.003794278 +0.002243976 -0.001949402
-0.010153550 -0.004624526 -0.004098378
-0.001343770 -0.000020248 -0.001762867
+0.001110415 +0.000482227 -0.003816127
+0.002663760 -0.003673695 -0.001748340
+0.008061226 +0.008193395 -0.002262772
+0.072428603 +0.096909018 +0.082641821
-0.003445230 +0.001662604 +0.001456234
+0.002838924 +0.000961548 +0.004721814
-0.002831582 -0.000900412 +0.000525074
-0.004436105 -0.008594895 -0.007042032
-0.071321917 -0.089000146 -0.071751586
+0.000394343 +0.001153573 -0.001252230
+0.001245091 -0.002190826 -0.000232546
+0.001230843 +0.003524393 +0.006352736
+0.003295756 +0.001965597 -0.002101970
-0.014253752 -0.009366052 -0.008227829
-0.001304922 -0.000170561 -0.001596021
+0.001196633 +0.000554882 -0.003681685
+0.002594983 -0.003660150 -0.001791255
+0.008092473 +0.008270514 -0.002207498
+0.072282611 +0.096256901 +0.082550122
-0.003398056 +0.001586904 +0.001409646
+0.003082164 +0.001057716 +0.004987818
-0.002882288 -0.001010578 +0.000503320
-0.004596332 -0.013254192 -0.010102526
-0.066241361 -0.083643831 -0.067392649
+0.003059069 +0.003906253 -0.000007822
+0.000711292 -0.002451550 -0.000067483
-0.000530432 +0.005918247 +0.008262922
+0.002616016 +0.001063551 -0.002448532
-0.016435664 -0.012291167 -0.010957869
-0.001342234 -0.000191890 -0.001672001
+0.001063671 +0.000537415 -0.003485408
+0.002648612 -0.003646387 -0.001858037
+0.008000275 +0.007962252 -0.002247547
+0.070669604 +0.093871972 +0.081016765
-0.003342886 +0.001532197 +0.001357024
+0.003032387 +0.001157750 +0.005041423
-0.002757312 -0.000838576 +0.000540484
-0.003530482 -0.007943857 -0.006149548
-0.061633821 -0.077918830 -0.063670454
+0.000749331 +0.001411183 -0.001069632
+0.001063063 -0.002394459 -0.000224939
+0.001089879 +0.003271186 +0.005938718
+0.002220518 +0.000588724 -0.002656277
-0.018669566 -0.014516989 -0.013409847
-0.001327157 -0.000210184 -0.001619065
+0.000979516 +0.000511013 -0.003383603
+0.002619144 -0.003637668 -0.001867393
+0.008084857 +0.007869276 -0.002110290
+0.069581635 +0.092351998 +0.080262135
-0.003370959 +0.001536379 +0.001345545
+0.003067177 +0.001198256 +0.005059290
-0.002707575 -0.000748310 +0.000489721
-0.001755477 -0.010190856 -0.007883235
-0.058124521 -0.074308180 -0.060905793
+0.000947059 +0.001253770 -0.001264964
+0.000834428 -0.002118849 -0.000026854
-0.000498354 +0.006071011 +0.008015232
+0.001661715 -0.000301196 -0.002990163
-0.019735460 -0.015998713 -0.014993964
-0.001335148 -0.000201923 -0.001679786
+0.000751831 +0.000400501 -0.003230184
+0.002664744 -0.003575875 -0.001924188
+0.008008635 +0.007471159 -0.002090892
+0.067417124 +0.089662876 +0.078682355
-0.003404480 +0.001583517 +0.001347276
+0.002947288 +0.001246836 +0.004931360
-0.002555100 -0.000562283 +0.000537287
-0.002528523 -0.007553203 -0.005307632
-0.054530199 -0.069658522 -0.057826024
+0.000663702 +0.001545267 -0.001009306
+0.000912246 -0.002181705 -0.000286571
+0.000783143 +0.003418772 +0.005643485
+0.001190675 -0.000616889 -0.003252476
-0.020691674 -0.017171467 -0.016258046
-0.001292123 -0.000265405 -0.001643593
+0.000687856 +0.000369414 -0.003108130
+0.002680424 -0.003588634 -0.001981658
+0.007951147 +0.007362731 -0.001990603
+0.066193839 +0.087525424 +0.077713212
-0.003320291 +0.001610810 +0.001290315
+0.002909313 +0.001258214 +0.004864931
-0.002529990 -0.000517353 +0.000574375
-0.000984970 -0.009879495 -0.007353255
-0.051441265 -0.067115809 -0.055657836
+0.000812432 +0.001474184 -0.001156169
+0.000719337 -0.002027033 -0.000009328
-0.000651132 +0.006027181 +0.007722424
+0.000822051 -0.001241925 -0.003565303
-0.020581412 -0.016356883 -0.016262384
-0.001292982 -0.000229033 -0.001775505
+0.000491717 +0.000238812 -0.002958519
+0.002744872 -0.003563648 -0.002037918
+0.008161721 +0.007283643 -0.001644002
+0.064055992 +0.084616859 +0.076076759
-0.003420252 +0.001734308 +0.001312542
+0.002589250 +0.001102933 +0.004393980
-0.002440264 -0.000307003 +0.000564749
-0.003839951 -0.011293866 +0.000811626
-0.049863115 -0.064734376 -0.054966363
+0.001455702 +0.003099482 -0.001674045
+0.001964541 -0.000203437 -0.003399391
+0.000734728 +0.003857543 +0.004324483
+0.000397846 -0.001885006 -0.003861582
-0.022094748 -0.018227115 -0.018386281
-0.001311134 -0.000284123 -0.001759062
+0.000389576 +0.000206184 -0.002817570
+0.002731116 -0.003522445 -0.002086974
+0.008188393 +0.007068478 -0.001567148
+0.062381998 +0.082601660 +0.074998582
-0.003458056 +0.001750074 +0.001297058
+0.002586144 +0.001181115 +0.004388615
-0.002359906 -0.000187910 +0.000544514
-0.002573006 -0.006173798 +0.004421064
-0.046719207 -0.060335770 -0.051866905
-0.000971873 +0.000513263 -0.002791770
+0.002258878 -0.000177697 -0.003521098
+0.002152684 +0.001429812 +0.002270448
-0.000027777 -0.002321244 -0.004378971
-0.019180465 -0.015065363 -0.015080744
-0.001335616 -0.000393759 -0.001845988
+0.000049687 -0.000221627 -0.002578505
+0.002877542 -0.003431690 -0.002117625
+0.008366614 +0.006775094 -0.001434565
+0.058846358 +0.078111125 +0.073338675
-0.003495839 +0.002267653 +0.001405889
+0.002313189 +0.001102225 +0.003537906
-0.002971363 -0.000410628 +0.000738147
-0.011269816 -0.013395048 +0.001586613
-0.044779269 -0.061169591 -0.049479097
+0.004526205 +0.005167966 -0.000526889
+0.003450585 +0.000921562 -0.004787449
+0.002403695 +0.002836577 +0.002924842
-0.000376229 -0.002877094 -0.004690293
-0.020222913 -0.016429762 -0.016806688
-0.001328401 -0.000443833 -0.001794286
-0.000091318 -0.000243053 -0.002480408
+0.002816972 -0.003421387 -0.002135450
+0.008344757 +0.006473783 -0.001334297
+0.057279290 +0.076182079 +0.072319848
-0.003499554 +0.002304578 +0.001374619
+0.002319431 +0.001188446 +0.003515595
-0.002930032 -0.000319923 +0.000730137
-0.010201888 -0.008415111 +0.004983450
-0.042250832 -0.057377193 -0.046670051
+0.002241637 +0.002657535 -0.001591132
+0.003769978 +0.000953659 -0.004892791
+0.003826935 +0.000507357 +0.000931410
-0.000525910 -0.003107419 -0.004653604
-0.022928772 -0.019153815 -0.019902260
-0.001356415 -0.000477714 -0.001732508
-0.000041021 -0.000150785 -0.002462451
+0.002746303 -0.003393344 -0.002158819
+0.008483031 +0.006724832 -0.001298638
+0.057100367 +0.075694054 +0.072149859
-0.003566463 +0.002172857 +0.001420633
+0.002442994 +0.001175794 +0.003702639
-0.002722758 -0.000242981 +0.000681033
-0.007117097 -0.008565650 +0.000375508
-0.039031633 -0.053612675 -0.044578383
+0.002385399 +0.002319924 -0.001533164
+0.001919090 -0.000783963 -0.001377757
+0.002496784 +0.003368037 +0.002535599
-0.000929038 -0.003585246 -0.005059849
-0.023245670 -0.019864598 -0.020733460
-0.001367819 -0.000564447 -0.001712756
-0.000144772 -0.000226494 -0.002315072
+0.002721718 -0.003403139 -0.002147150
+0.008392941 +0.006220144 -0.001200009
+0.055464644 +0.073672757 +0.071084055
-0.003546179 +0.002276828 +0.001380578
+0.002426656 +0.001294837 +0.003621232
-0.002792915 -0.000193276 +0.000686238
-0.006670423 -0.003838581 +0.000433566
-0.036759010 -0.050264368 -0.041901324
+0.002397440 +0.002740721 -0.001547158
+0.000717002 -0.003517869 +0.000514982
+0.003611811 +0.000573462 +0.000648700
-0.001141939 -0.003875467 -0.005248382
-0.024093368 -0.020626684 -0.022059832
-0.001338170 -0.000583081 -0.001632684
-0.000203228 -0.000256953 -0.002269364
+0.002694159 -0.003376937 -0.002158668
+0.008511732 +0.006138003 -0.001103895
+0.054443635 +0.072318425 +0.070458611
-0.003596172 +0.002261035 +0.001380722
+0.002429405 +0.001339081 +0.003634148
-0.002730999 -0.000119084 +0.000652709
-0.007618169 -0.006032046 +0.002388794
-0.034886521 -0.048272124 -0.039834978
+0.002220342 +0.002605252 -0.001225105
+0.001920825 -0.000979100 -0.001557623
+0.003610756 +0.000832205 +0.000368985
-0.001340087 -0.004162346 -0.005494045
-0.022908480 -0.019492562 -0.021383832
-0.001327458 -0.000570355 -0.001575673
-0.000374639 -0.000456014 -0.002240095
+0.002754029 -0.003295295 -0.002178304
+0.008529415 +0.005896506 -0.001299748
+0.052495473 +0.069603869 +0.069551550
-0.003571888 +0.002450517 +0.001455172
+0.002439372 +0.001455928 +0.003441876
-0.002862974 -0.000229645 +0.000789764
-0.008291145 -0.010829788 -0.000642753
-0.033705041 -0.047925736 -0.038391235
+0.004341349 +0.005194340 -0.000292814
+0.001508393 -0.000963859 -0.001353357
+0.002093084 +0.003277285 +0.002140375
-0.001566850 -0.004612037 -0.005751208
-0.023548652 -0.020415728 -0.022757724
-0.001301744 -0.000584957 -0.001486853
-0.000506649 -0.000458517 -0.002223304
+0.002724602 -0.003285063 -0.002187926
+0.008570278 +0.005731553 -0.001276942
+0.051131398 +0.067931268 +0.068686947
-0.003592215 +0.002453787 +0.001439039
+0.002438581 +0.001513521 +0.003450283
-0.002765935 -0.000119458 +0.000800174
-0.007187940 -0.005897108 +0.002747705
-0.031762346 -0.045029444 -0.036263023
+0.002015268 +0.002742605 -0.001354761
+0.001755020 -0.000969865 -0.001413416
+0.003488419 +0.000943547 +0.000129521
-0.001740337 -0.004849988 -0.005954835
-0.024097896 -0.020838803 -0.023683891
-0.001310876 -0.000621665 -0.001463633
-0.000547945 -0.000461595 -0.002133226
+0.002678810 -0.003302133 -0.002211757
+0.008580445 +0.005559480 -0.001169599
+0.050247321 +0.066652222 +0.068129746
-0.003606877 +0.002462391 +0.001437550
+0.002459899 +0.001577035 +0.003444699
-0.002736760 -0.000095685 +0.000755403
-0.005849750 -0.008162183 +0.000861595
-0.030061536 -0.043372492 -0.034546427
+0.002178273 +0.002566310 -0.001610475
+0.001565826 -0.000709771 -0.001211501
+0.002073433 +0.003543459 +0.002108422
-0.002053706 -0.005222288 -0.006239888
-0.024271934 -0.021315620 -0.024483369
-0.001322335 -0.000704435 -0.001471756
-0.000576390 -0.000539860 -0.002037700
+0.002682662 -0.003245940 -0.002210174
+0.008571441 +0.005244896 -0.001125960
+0.048851250 +0.064910367 +0.067237486
-0.003611044 +0.002514751 +0.001419448
+0.002427669 +0.001644043 +0.003389311
-0.002734776 -0.000006777 +0.000775960
-0.005452191 -0.003395887 +0.001040062
-0.028308077 -0.040461735 -0.032400170
+0.002202995 +0.002973555 -0.001647575
+0.000373951 -0.003413211 +0.000617371
+0.003168479 +0.000742579 +0.000256908
-0.002117718 -0.004970974 -0.006252630
-0.027919384 -0.026363328 -0.028672235
-0.001157766 -0.000844439 -0.000889501
-0.000523044 -0.000304035 -0.002153223
+0.002449507 -0.003312749 -0.002207480
+0.008564734 +0.005656113 -0.001344871
+0.049513839 +0.065178083 +0.067805875
-0.003497790 +0.002195460 +0.001279679
+0.002903219 +0.001946793 +0.004113966
-0.002749634 -0.000352665 +0.000795518
-0.007311668 -0.004438264 +0.001994102
-0.023578906 -0.037402542 -0.027405898
+0.002331465 +0.003190403 -0.001306845
+0.001077221 -0.001238224 -0.001331397
+0.003349793 +0.000662211 -0.000040492
-0.002287897 -0.005131327 -0.006362823
-0.030224265 -0.028221225 -0.031434037
-0.001122875 -0.000905787 -0.000846912
-0.000439654 -0.000269821 -0.002107531
+0.002338109 -0.003293711 -0.002144538
+0.008643082 +0.005481234 -0.001013518
+0.049399228 +0.065523758 +0.067750493
-0.003706502 +0.002129645 +0.001263185
+0.002935704 +0.001871299 +0.004298158
-0.002361396 +0.000065405 +0.000564259
-0.008769335 -0.010445085 -0.002681103
-0.021257771 -0.034578772 -0.025683065
+0.006057103 +0.007161716 +0.001593400
+0.000875018 -0.000817705 -0.001272715
+0.001139496 +0.002925146 +0.001745493
-0.002499128 -0.005480443 -0.006612373
-0.030342317 -0.028621967 -0.032160495
-0.001133704 -0.000931554 -0.000819327
-0.000515835 -0.000290368 -0.002045894
+0.002326615 -0.003289710 -0.002147122
+0.008611800 +0.005251823 -0.000989024
+0.048147708 +0.063970504 +0.066929595
-0.003727389 +0.002140577 +0.001252937
+0.002922878 +0.001939042 +0.004293439
-0.002289367 +0.000128144 +0.000580208
-0.007798858 -0.005584996 +0.000484913
-0.020040929 -0.032215724 -0.023910239
+0.003827181 +0.004722413 +0.000542202
+0.001130526 -0.000811036 -0.001332789
+0.002539447 +0.000584362 -0.000209334
-0.002626330 -0.005630900 -0.006784590
-0.030675952 -0.028864043 -0.032804306
-0.001130616 -0.000983672 -0.000797470
-0.000549614 -0.000313053 -0.002005205
+0.002285152 -0.003297284 -0.002145994
+0.008633068 +0.005125740 -0.000923901
+0.047471517 +0.062852747 +0.066440050
-0.003724406 +0.002203627 +0.001228417
+0.002912753 +0.001951952 +0.004266936
-0.002314245 +0.000210420 +0.000620186
-0.006547020 -0.007961751 -0.001435651
-0.018553859 -0.030912828 -0.022529059
+0.003996204 +0.004471107 +0.000285508
+0.000965683 -0.000564887 -0.001139876
+0.001170505 +0.003194419 +0.001815082
-0.002832962 -0.006010817 -0.007019394
-0.030759388 -0.029359523 -0.033597410
-0.001140399 -0.000987459 -0.000723927
-0.000604488 -0.000349575 -0.001946152
+0.002279705 -0.003271096 -0.002164574
+0.008649279 +0.004977309 -0.000911030
+0.046249610 +0.061533399 +0.065700070
-0.003765974 +0.002167148 +0.001247556
+0.002918848 +0.002024976 +0.004266832
-0.002169653 +0.000245870 +0.000572062
-0.004472916 -0.003312061 +0.002018481
-0.016891638 -0.028734714 -0.020675954
+0.000462229 +0.002724068 -0.000978591
+0.001232517 -0.000587773 -0.001235267
+0.002126844 +0.000424820 -0.000479497
-0.002934557 -0.006026435 -0.006939560
-0.031932844 -0.030744747 -0.035281346
-0.001239368 -0.001045609 -0.000815516
-0.000429351 -0.000235159 -0.001887979
+0.002237956 -0.003334690 -0.002220476
+0.008624834 +0.004880979 -0.000834811
+0.046298908 +0.061167680 +0.065376923
-0.003692805 +0.002106551 +0.001183192
+0.002994731 +0.002078925 +0.004449057
-0.002173262 +0.000379168 +0.000530248
-0.003311861 -0.005345485 +0.000372761
-0.014153229 -0.026797761 -0.019964108
+0.000666951 +0.002544742 -0.001052685
+0.001162577 -0.000195475 -0.001235127
+0.000857127 +0.002628248 +0.001318383
-0.003104478 -0.006294199 -0.007128470
-0.031808730 -0.031131808 -0.035704960
-0.001237081 -0.001089242 -0.000796754
-0.000486901 -0.000254241 -0.001839770
+0.002204189 -0.003345544 -0.002222298
+0.008575472 +0.004658821 -0.000815061
+0.045243496 +0.059917384 +0.064660498
-0.003696426 +0.002125195 +0.001165269
+0.002970923 +0.002147797 +0.004426381
-0.002131893 +0.000422634 +0.000556903
-0.004494124 -0.009118498 -0.000383548
-0.013727421 -0.023268386 -0.019054865
+0.002783995 +0.005452183 +0.000289462
+0.001151914 -0.000545195 -0.001217556
+0.000856996 +0.002275435 +0.001324279
-0.003213158 -0.006574506 -0.007524349
-0.031123065 -0.029892192 -0.035299451
-0.001179275 -0.001126390 -0.000674661
-0.000664763 -0.000406476 -0.001775758
+0.002191650 -0.003280448 -0.002211529
+0.008748294 +0.004567693 -0.000754816
+0.043742320 +0.058096412 +0.064113518
-0.003806499 +0.002226173 +0.001233066
+0.002893621 +0.002154141 +0.004211046
-0.002150929 +0.000398665 +0.000545019
-0.004052039 -0.003152518 +0.002137718
-0.013263372 -0.024501022 -0.016660509
+0.000442761 +0.002813082 -0.001054297
+0.001059629 -0.000571847 -0.001267661
+0.001908132 +0.000452453 -0.000559003
-0.003212787 -0.006430807 -0.007439794
-0.035043092 -0.033540431 -0.038684537
-0.001194392 -0.001419028 -0.000597916
-0.000446637 -0.000376340 -0.001694681
+0.001967219 -0.003217978 -0.002203195
+0.008953972 +0.004720698 -0.000441096
+0.044528537 +0.059686761 +0.065092932
-0.004016905 +0.002274384 +0.001244509
+0.003156089 +0.002152919 +0.004368395
-0.002184921 +0.000336165 +0.000363445
-0.004323125 -0.008301139 -0.001250668
-0.010944145 -0.020132465 -0.013534965
+0.003159241 +0.005258555 +0.000106429
+0.000725298 -0.000483331 -0.001530887
-0.000247454 +0.003260272 +0.001893547
-0.003420000 -0.006691724 -0.007563424
-0.034090942 -0.033553508 -0.038858673
-0.001244648 -0.001329666 -0.000587675
-0.000471493 -0.000208541 -0.001701964
+0.001972235 -0.003379602 -0.002253450
